# .PCD v0.7 - Point Cloud Data file format
VERSION 0.7
FIELDS x y z
SIZE 4 4 4
TYPE F F F
COUNT 1 1 1
WIDTH 1281
HEIGHT 1
VIEWPOINT 0 0 0 1 0 0 0
POINTS 1281
DATA ascii
0.0152179 -0.0083404705 -0.0339735
-0.026157102 -0.0063435598 -0.030784801
0.025856102 0.027276 -0.0341001
0.031556901 0.031550299 -0.034042701
-0.030280899 0.0536061 -0.029077802
0.026179502 0.059215702 -0.0339275
-0.024672199 0.063074797 -0.030241501
-0.032262199 0.065600097 -0.029311502
-0.031113198 0.065927699 -0.030556301
-0.0277764 0.0662117 -0.029327402
-0.030806299 0.066338301 -0.0299979
0.025014499 0.0667044 -0.037034802
0.030336499 0.066831 -0.033006601
0.033211801 0.0667326 -0.032166
-0.026987899 -0.0077426704 -0.0277975
-0.019758899 -0.0082134698 -0.0278525
0.028715599 -0.0090068402 -0.029913798
0.0323552 -0.0060729696 -0.031224098
-0.022685399 -0.0035394102 -0.030245399
0.0328255 -0.0030825199 -0.0326083
0.026064599 0.0027573099 -0.033822902
-0.024908898 0.0066240602 -0.0288867
-0.026559699 0.0166474 -0.027174601
-0.0299692 0.035736501 -0.029244
0.027308699 0.042131402 -0.032989599
-0.028572902 0.0572358 -0.031091699
-0.024104301 0.045997102 -0.0304955
0.0324235 0.057832099 -0.0331854
-0.0309356 0.062826701 -0.030588901
0.026086101 0.0638519 -0.033996899
-0.027354801 0.064993501 -0.027909001
-0.032106798 0.066067502 -0.028588701
0.026233301 0.0656242 -0.034530498
0.029842898 0.066462599 -0.0323098
-0.012786699 -0.0140549 -0.030961901
-0.013813799 -0.0129354 -0.0224151
0.0102399 -0.0132828 -0.028020799
0.0139685 -0.0128987 -0.026553899
0.0194271 -0.014032799 -0.030709699
0.0243755 -0.0133075 -0.029628798
0.0232323 -0.0124331 -0.031484701
-0.020603601 -0.0069843503 -0.029311001
-0.0235734 -0.0054510697 -0.027976399
-0.029551398 -0.0028445697 -0.028983001
0.0299202 -0.00097554299 -0.030148301
-0.029882899 0.019648101 -0.0290497
0.026825299 0.0158091 -0.033248
0.033370901 0.0123162 -0.032167599
0.033064 0.059868902 -0.033155799
-0.027075101 0.062600002 -0.0273348
-0.032703701 0.0647747 -0.028921101
-0.025984699 0.065448999 -0.029989401
-0.031538799 0.0664915 -0.028010299
-0.029965799 0.066611201 -0.0296329
-0.028567698 0.066548102 -0.029679701
-0.019145599 -0.013750901 -0.027884502
-0.0177572 -0.0139922 -0.026161399
-0.023091801 -0.0100345 -0.028227299
0.010043 -0.00888824 -0.0298141
0.021460399 -0.00779662 -0.031872399
0.026630301 -0.0037780697 -0.032562401
-0.025070399 -0.0031761001 -0.0276342
-0.0318578 0.019076299 -0.026092499
-0.027333599 0.0128584 -0.025899401
-0.030217502 0.059771501 -0.029695699
0.028887201 0.061288297 -0.0316443
-0.0287684 0.065983906 -0.027116399
-0.030370399 0.066329904 -0.0259424
-0.020212 -0.012781801 -0.028458599
0.0273105 -0.012492901 -0.028032199
-0.0139064 -0.0087380502 -0.030572301
0.034971002 -0.0043958602 -0.029594202
0.035011001 -0.0023402902 -0.030185198
-0.032098901 0.027728099 -0.025907498
-0.0312756 0.039061796 -0.027419399
0.028726701 0.054935802 -0.0317543
-0.028403301 0.053569198 -0.025258601
-0.026572701 0.041885398 -0.027566399
0.034164902 0.045343101 -0.031201402
0.035660401 0.059276503 -0.029774498
-0.029532 0.065179601 -0.0249977
0.036849603 0.063839696 -0.030766999
-0.034348302 0.065680102 -0.026056999
-0.033781897 0.065835297 -0.026824201
0.029001901 0.065588497 -0.032113098
-0.033144299 0.066383101 -0.026435399
0.030336902 0.066198193 -0.0313426
0.034180697 0.065939799 -0.032916699
0.032815497 0.0668125 -0.029876899
-0.020672301 -0.014064999 -0.024094399
0.019079 -0.013612499 -0.028349301
-0.029710099 -0.0048573199 -0.027858103
-0.0270152 0.00079645508 -0.0260645
-0.0272865 0.0234238 -0.026252801
0.031852502 0.048236303 -0.028311899
-0.029126 0.042549901 -0.023894301
-0.033957299 0.063778594 -0.026781401
-0.029999798 0.062546998 -0.022831898
-0.030282 0.065939799 -0.025054198
0.037499901 0.06521 -0.029574599
-0.030936901 0.066586405 -0.026851201
0.036425598 0.065163903 -0.031197399
-0.0255707 -0.0094569707 -0.026282301
-0.029401401 -0.0062985704 -0.026751602
0.026726902 -0.00647509 -0.029937301
0.033385701 -0.0069958903 -0.028757701
-0.026328301 -0.0055562803 -0.024161201
0.035261903 -0.0055051297 -0.028297599
0.029444302 0.0078838402 -0.030685401
0.0366739 0.0028972002 -0.0281347
0.0297605 0.024165301 -0.030564299
-0.0288266 0.030189503 -0.024089199
-0.033113204 0.052521002 -0.024660701
0.0364534 0.057082903 -0.028253701
-0.0346778 0.065414801 -0.025398001
-0.034167901 0.0661228 -0.025351102
-0.032303199 0.066619001 -0.026243201
-0.0226465 -0.0139897 -0.022645902
0.022148002 -0.0139957 -0.0298953
-0.0220562 -0.0084001906 -0.024239
0.028096203 -0.0102226 -0.028988
0.014733599 -0.0087565798 -0.029827401
0.031745099 -0.0089710001 -0.026271001
0.0287925 -0.0052768299 -0.029352199
-0.027597299 -0.00226577 -0.024439
-0.029414099 0.0141544 -0.0226408
0.036212299 0.0171888 -0.028586099
0.0360597 0.034362301 -0.028844301
-0.032059602 0.047874 -0.026305202
-0.032357104 0.057192702 -0.025769699
0.0379926 0.0578718 -0.025889501
0.029810499 0.063258 -0.0306853
0.038922898 0.063787498 -0.027708899
-0.034933701 0.065967597 -0.024505399
0.030326799 0.064713098 -0.0303763
0.032161999 0.066295698 -0.0293664
0.036486097 0.066070899 -0.029709
0.0283638 -0.013588199 -0.025097299
-0.032771997 -0.0028945 -0.0238482
-0.0268532 -0.0043351003 -0.0245382
-0.031735502 0.0049500801 -0.0261217
0.037616201 -0.0032875198 -0.026269699
-0.029477399 0.00156425 -0.0220611
0.0302129 0.040148802 -0.030171201
-0.033116098 0.059369702 -0.025118798
0.0386572 0.060303599 -0.025873199
-0.032158501 0.066276804 -0.0227249
0.033359502 0.064976498 -0.026725799
-0.033603899 0.066628098 -0.023902901
-0.032488 0.066581398 -0.0242086
0.0387589 0.065124102 -0.027736101
0.038657799 0.0657987 -0.027014101
0.036801703 0.066948101 -0.025672
-0.023132499 -0.012824701 -0.025206801
0.0119654 -0.0123298 -0.0220681
-0.025723699 -0.010471402 -0.024335099
-0.017591499 -0.00914713 -0.022615802
0.0208632 -0.0085894 -0.029040501
-0.024722099 -0.0069730803 -0.024410101
0.036983199 -0.0055715097 -0.025718099
0.030808499 -0.00322375 -0.028631002
-0.030657198 0.0459475 -0.021263799
-0.0308997 0.064334795 -0.0219288
-0.035744704 0.065272197 -0.0235938
-0.035586201 0.065964207 -0.023232501
-0.034802102 0.066451505 -0.0233123
0.034974203 0.066893995 -0.027360002
-0.025648898 -0.012685001 -0.0216003
0.0086791404 -0.0130891 -0.023630101
0.016445901 -0.012419799 -0.023290198
-0.0059478697 -0.0116406 -0.016919401
0.029590901 -0.012713701 -0.025188401
0.0305572 -0.0102452 -0.0260639
-0.0120999 -0.0091207195 -0.029079903
0.032857798 0.0128924 -0.026756098
-0.030539801 0.030578801 -0.021025298
-0.034902599 0.057566799 -0.020808799
0.031640802 0.0591074 -0.028544599
-0.036604799 0.065443799 -0.021396099
-0.0314219 0.065353699 -0.021977698
0.037453499 0.066650704 -0.026892001
-0.0240517 -0.0136067 -0.0222509
-0.0240894 -0.0140553 -0.018719101
-0.0264039 -0.0067694001 -0.021578699
-0.032139197 -0.0064155101 -0.021905899
0.036116101 -0.0072491402 -0.024178101
0.032990601 -0.0042164 -0.025159901
-0.029337 -0.00187262 -0.0214736
-0.034254901 0.0226775 -0.021700799
0.032933898 0.0295984 -0.026732702
-0.033890702 0.044905402 -0.022887502
0.038080297 0.019167 -0.025771901
0.033779703 0.044370998 -0.025657499
-0.035427298 0.059689999 -0.0208026
-0.037020802 0.065777801 -0.02049
-0.032719601 0.066055298 -0.0206625
-0.0361025 0.066275001 -0.021149
0.034326199 0.066479795 -0.026913101
0.036798 0.066846199 -0.0241022
-0.025372799 -0.0136869 -0.0197354
0.028284702 -0.013836999 -0.023802901
0.00657719 -0.0123059 -0.022193899
0.022167401 -0.012974801 -0.0244116
-0.031642698 -0.0075567393 -0.020689201
-0.0215568 -0.0088584805 -0.022430699
0.0325405 -0.0098669799 -0.0234941
0.0084098503 -0.0086728297 -0.0259795
0.027043 -0.0080334796 -0.0255978
0.030432697 -0.0058203703 -0.026760301
0.040043 -0.0011115201 -0.022233699
0.032864299 -0.00054030999 -0.026555801
-0.031522803 0.056902904 -0.019549102
-0.0365947 0.063074999 -0.021298001
0.032704104 0.063827902 -0.027245501
0.040820204 0.063397005 -0.024216201
-0.036830503 0.066156 -0.019833401
-0.035182901 0.066623598 -0.0208789
0.0339204 0.0659725 -0.026704499
0.040389903 0.065012604 -0.0249053
0.039098497 0.066886596 -0.022677099
0.025026301 -0.013904801 -0.026194001
0.031434499 -0.012477899 -0.022865001
-0.025621403 -0.0080055203 -0.019387301
0.022861999 -0.0085609797 -0.021482902
0.034741201 -0.0090377396 -0.021180701
-0.032979898 -0.0047976701 -0.022472601
-0.028816501 -0.0045009898 -0.020351801
0.034900703 0.038334303 -0.023747101
-0.035466 0.047981899 -0.019294301
0.038934801 0.039139502 -0.024231199
-0.032507703 0.064371496 -0.018355399
-0.033757001 0.065558195 -0.016756501
-0.034516603 0.066343799 -0.017663602
0.040406398 0.066460401 -0.022119101
-0.027884599 -0.0106215 -0.0201598
-0.0059036301 -0.0088661294 -0.025035297
0.0286378 -0.0073711001 -0.025988799
-0.027324801 -0.0061993999 -0.019382799
-0.0285777 -0.0052340003 -0.018959299
0.039195597 -0.0060285805 -0.020835899
-0.034377601 -0.0024560899 -0.020667601
-0.030434001 -0.0039409399 -0.017903099
0.039845902 -0.0042265803 -0.0216722
0.035321496 0.023923999 -0.0229686
0.039289702 0.0092973094 -0.023719501
0.0340956 0.056645196 -0.0251284
0.0402225 0.057250194 -0.021617901
0.040480599 0.059599798 -0.021835301
-0.0328402 0.0621925 -0.016795099
-0.037836604 0.064612195 -0.018922899
-0.037801303 0.065478101 -0.018831499
0.0427869 0.064502403 -0.019961901
-0.0341633 0.066616796 -0.0210387
0.041733701 0.065416604 -0.0216075
-0.0276406 -0.012813101 -0.017515801
0.031375699 -0.0137245 -0.019756598
0.0080150096 -0.0120801 -0.020423699
-0.034230899 -0.0062595597 -0.017453199
-0.0266442 -0.0073406599 -0.0175821
0.0331848 -0.00681744 -0.019950001
-0.031138798 -0.00037587801 -0.018104
-0.031536501 0.022277098 -0.018471999
0.042439301 0.063281603 -0.020472098
-0.037574198 0.066009104 -0.0185524
0.040210497 0.065885201 -0.024003301
-0.026635999 -0.0137698 -0.016288001
0.031961899 -0.013414199 -0.0200342
0.013925101 -0.0115843 -0.017994899
0.0049089896 -0.0115015 -0.018671101
0.032876801 -0.012515401 -0.0204772
-0.028701901 -0.0095162699 -0.020808799
0.0341224 -0.010239001 -0.020276099
-0.023403602 -0.0089127906 -0.016779799
-0.029555699 -0.0050019599 -0.0182677
0.034721296 0.0041589094 -0.023810301
-0.032163799 0.010390601 -0.015962401
-0.036772598 0.0595918 -0.0171287
0.034377702 0.061577499 -0.024773899
0.035298802 0.063969702 -0.0233653
-0.0384131 0.065590598 -0.016612101
0.036281399 0.066403396 -0.023530502
-0.026205201 -0.013997501 -0.0123438
-0.00224813 -0.0123239 -0.0246122
-0.029200599 -0.0062231598 -0.016696502
0.034612201 -0.0042626401 -0.0223046
0.0342982 -0.0026144099 -0.024167199
-0.032820597 0.029559001 -0.014970399
-0.032710604 0.057767201 -0.016613599
-0.038135298 0.066192299 -0.0158433
-0.038040102 0.066287801 -0.016473101
0.0360943 0.065614596 -0.0227267
-0.027097201 -0.013982301 -0.013385301
-0.035190701 -0.0046664001 -0.017217999
-0.031054398 -0.0054187104 -0.0134581
0.032777403 -0.0056690099 -0.023474501
-0.032274101 -0.00067220995 -0.0143567
0.036767401 0.038715802 -0.0200027
0.036221299 0.049386397 -0.021428199
0.036429901 0.059505798 -0.0207495
0.041659698 0.057858001 -0.0179778
-0.038876399 0.065328702 -0.0152173
-0.036417101 0.066617399 -0.0184903
0.038538199 0.066884398 -0.020594399
-0.028278101 -0.013456499 -0.0136767
-0.029826 -0.0098941606 -0.016890101
0.035453402 -0.0102822 -0.0171648
-0.0297854 -0.0062847799 -0.015429599
0.038473703 -0.0072035501 -0.019659702
-0.036016397 0.0072157504 -0.0167858
0.036588501 0.0018024599 -0.020261601
0.036162604 0.0099626202 -0.021042401
-0.036621399 0.056439094 -0.016090501
-0.038577203 0.063123204 -0.0155406
-0.0336935 0.064521596 -0.015130201
-0.038896702 0.065922096 -0.014514799
-0.034548599 0.0659943 -0.0156069
0.034313701 -0.012261599 -0.017551202
-0.0359919 -0.0033218302 -0.015846301
0.041722599 -0.0049629998 -0.0157446
-0.037332498 0.058104299 -0.0138614
-0.032870602 0.048721097 -0.015753299
-0.039050899 0.064599998 -0.0146474
0.0438792 0.063179001 -0.0161245
-0.036231 0.0664673 -0.013024901
-0.035932701 0.066621199 -0.016726101
0.037846498 0.065779902 -0.019156799
0.038170103 0.066390097 -0.0195296
0.041213401 0.066808701 -0.018480401
-0.0214797 -0.013298899 -0.014772301
-0.012883501 -0.0121223 -0.0144934
-0.026940098 -0.0081846099 -0.013555199
-0.033928901 -0.0076390803 -0.0139974
-0.035783701 -0.0056581502 -0.013436499
0.0320246 -0.0077758702 -0.0184398
-0.031716499 -0.00408429 -0.0133396
0.041477699 -0.0018767001 -0.018695801
-0.036410999 0.029209699 -0.0162814
-0.032843601 0.0022980901 -0.0127637
0.041143797 0.0309289 -0.019416001
-0.034110099 0.061172795 -0.0113148
0.0368836 0.064557701 -0.020353902
-0.039191201 0.065501504 -0.013624201
-0.035084803 0.065456301 -0.0112144
-0.038577501 0.066292703 -0.0138506
0.043916598 0.064636901 -0.0161728
0.042684399 0.065773003 -0.0183853
-0.029484401 -0.0126313 -0.0126026
0.0330857 -0.0136778 -0.016012199
0.00064218196 -0.010990402 -0.0123926
0.041377999 -0.0060041202 -0.014432201
-0.033231802 -0.00060592504 -0.0095153507
-0.0371144 0.01229 -0.0125265
0.037401598 0.024025802 -0.018461999
-0.0335209 0.036960401 -0.0124231
0.042341001 0.060141496 -0.0175875
-0.0349571 0.065837398 -0.0132348
0.039146196 0.066690907 -0.017806102
0.042725101 0.066483997 -0.015824201
-0.028565202 -0.013725 -0.010904
0.035254002 -0.0124569 -0.014607
-0.026005501 -0.0081750005 -0.012379901
-0.020926202 -0.0088365208 -0.0090105403
0.034495097 -0.0070076101 -0.0163773
0.035323799 -0.0056761997 -0.018358599
-0.036813699 -0.00312177 -0.012476
0.0422181 -0.0032970202 -0.015743401
0.037994701 0.000343942 -0.0166669
0.042956799 -0.00083345996 -0.0136069
0.0425032 0.018330099 -0.015264399
-0.035701901 0.066030905 -0.010924
-0.037437301 0.066622496 -0.013564
0.033842601 -0.013282401 -0.016281299
-0.030827001 -0.0105171 -0.0120546
0.036597099 -0.0090073105 -0.0169161
-0.0303749 -0.0066612102 -0.011737899
0.036624201 -0.00405504 -0.0181158
0.036955796 -0.0027358499 -0.0186978
-0.0336226 0.0116016 -0.0090020904
-0.037918299 0.0597197 -0.012761501
-0.039549701 0.063055098 -0.010431
0.03816 0.0645606 -0.017269101
-0.038743 0.066451803 -0.0119164
0.043714199 0.065620102 -0.0152451
0.040097199 0.066852495 -0.016600501
0.040423401 0.0669811 -0.017948098
0.034063201 -0.013710099 -0.0119832
0.024285201 -0.0123176 -0.017068099
0.017768998 -0.011224801 -0.0089102201
-0.031479601 -0.0095485495 -0.0128418
-0.027350402 -0.0083865207 -0.0120271
0.040147699 -0.0072224997 -0.014335699
0.037978001 0.044726502 -0.017097799
-0.0377241 0.056052398 -0.010691701
0.038456902 0.0604061 -0.015824798
0.042522799 0.056202501 -0.0150928
-0.034722097 0.064502798 -0.010494199
-0.039422698 0.066063203 -0.011727599
-0.036944598 0.066429399 -0.0086965393
-0.029327199 -0.013605 -0.0082972292
-0.0280215 -0.0140293 -0.0083276397
-0.0274201 -0.0086121503 -0.0092399698
-0.024377299 -0.0085491892 -0.0114107
-0.029167999 -0.0077702501 -0.0101841
-0.035032902 -0.0073128203 -0.0103939
0.031118799 -0.0082397293 -0.017024402
0.038139302 -0.0089158202 -0.0118611
0.037417497 -0.0052335998 -0.0131826
-0.032179002 -0.0049058301 -0.0073421099
0.038168401 0.0130991 -0.015852001
-0.034116 0.035962798 -0.0085575711
-0.0397278 0.064932302 -0.011869701
-0.039770301 0.065420307 -0.0095028803
-0.039383702 0.066113196 -0.0093452698
0.044748001 0.064695194 -0.012465401
0.038879298 0.065840304 -0.016245002
0.039585099 0.066393696 -0.0150676
0.043272302 0.066403702 -0.013692799
0.041930199 0.0669045 -0.0155614
-0.036496498 -0.0054751602 -0.0100284
0.035632096 -0.0071594999 -0.010773
0.0383019 -0.00310652 -0.0141865
-0.033013802 -0.00229336 -0.0079001691
-0.0376429 0.0075492905 -0.0085240202
-0.0375426 0.034560002 -0.0114313
0.038566504 0.030511102 -0.0149286
0.038837101 0.046353299 -0.0143054
0.039195202 0.0596641 -0.012931401
-0.0344925 0.060741104 -0.0075225397
-0.036235999 0.066085503 -0.0075868503
-0.035662703 0.065540805 -0.00766209
0.024620399 -0.0118504 -0.0080719301
-0.035928901 -0.0068312502 -0.0053078998
0.034337398 -0.0075607398 -0.013217901
-0.0312519 -0.0063184798 -0.0077669704
-0.037464801 -0.00356923 -0.0063479603
0.043294299 -0.0036630197 -0.0102822
0.043254398 0.0196079 -0.011891
0.043214403 0.0577721 -0.012116
0.043672502 0.0598795 -0.012108
-0.040050801 0.064234808 -0.0069294497
0.039071299 0.064558402 -0.0143438
-0.039834298 0.065586194 -0.0079696393
0.031288199 -0.0137495 -0.017595898
0.0351643 -0.0134401 -0.0104824
0.036095798 -0.012574899 -0.0109181
-0.0326108 -0.0093181999 -0.0071767597
-0.029790398 -0.0075791604 -0.0059206197
0.020863499 -0.0080616502 -0.0120581
0.0422539 -0.0061594201 -0.0090997294
-0.037757598 0.0050234199 -0.0058233901
0.039168999 0.0024349799 -0.011854801
0.039117701 0.013499799 -0.0122717
0.039122 0.027478701 -0.0126501
0.045026902 0.062988997 -0.0106271
-0.040052198 0.065595105 -0.00712856
0.040256701 0.066450499 -0.0130961
-0.028900499 -0.0137999 -0.0058256099
-0.027372602 -0.0140763 -0.00383474
0.0092977397 -0.0107985 -0.010561401
-0.024412399 -0.0087396698 -0.00756907
0.0373642 -0.0099787991 -0.010984002
0.0144014 -0.0081180502 -0.017196899
0.043708801 -0.0018762799 -0.00890477
-0.033593602 0.00198001 -0.0045115999
-0.037961103 0.037209801 -0.0078474497
-0.034699701 0.062034201 -0.0041809403
-0.040162198 0.065563798 -0.0055381497
-0.039848097 0.066172302 -0.0059514698
-0.018778602 -0.01254 -0.0059533101
0.0023360499 -0.0105324 -0.0050881798
0.036904596 -0.0121052 -0.0074053197
-0.0349999 -0.0077186301 -0.00555587
0.0036617504 -0.0078978203 -0.0119674
0.041177399 -0.0071978206 -0.0089806104
0.0429473 -0.0049483799 -0.0095528699
0.043779798 0.028803399 -0.0080267098
-0.038100399 0.057087798 -0.0074593602
-0.034249101 0.033270698 -0.0042025498
0.043467604 0.047802202 -0.010363599
-0.034417 0.053536199 -0.00249531
-0.040275801 0.065766796 -0.0049542799
-0.0382654 0.066594101 -0.0086743804
0.0443605 0.065922901 -0.0114218
-0.031632997 -0.010385999 -0.0067590699
-0.0114142 -0.0085514896 -0.0119438
0.028178399 -0.0084257498 -0.0109031
-0.031565599 -0.0058904001 -0.0037550901
0.039671 0.051715396 -0.0101681
-0.038524203 0.059299599 -0.00682856
0.043885399 0.057437699 -0.0071099601
0.040061798 0.064706802 -0.00985769
-0.040141899 0.065469399 -0.0043955101
-0.035798401 0.065717295 -0.0021786201
0.045369599 0.064810999 -0.0087709595
-0.0301493 -0.012802599 -0.0087600704
0.036164396 -0.012985 -0.0078114597
0.038610101 -0.0042300802 -0.0097353095
0.0391418 -0.0019633402 -0.0111643
-0.038054198 0.031118402 -0.0043951701
0.0398391 0.040364496 -0.0082947193
-0.035117298 0.064599 -0.0061648502
-0.039707903 0.066124201 -0.0048396299
-0.0392996 0.066417903 -0.0076417499
0.039968699 0.0657501 -0.011849
0.044659398 0.066089898 -0.0084576504
0.041212998 0.066887006 -0.012610699
-0.029304501 -0.013692799 -0.00361281
-0.028262198 -0.014072401 -0.00090456597
-0.0302504 -0.0128878 -0.0017325601
0.035734899 -0.0133965 -0.0041248798
-0.022658799 -0.0084490003 -0.0040622
-0.000315187 -0.0078348396 -0.0049231602
0.037412997 -0.0057974802 -0.0098396298
-0.033276502 -0.00143399 -0.0034229502
0.044150598 0.059651203 -0.0079466794
-0.0401708 0.064607807 -0.0047773598
0.045425598 0.062998198 -0.0068012602
-0.039979301 0.065654598 -0.0027128602
0.033654597 -0.0136824 -0.0086695096
0.029685199 -0.0126037 -0.0059164101
-0.026049802 -0.0089868102 -0.0056290003
-0.020485301 -0.0085662398 -0.00013279299
0.0378679 -0.0099582095 -0.00587693
0.034016799 -0.007944 -0.0097040106
-0.037011601 -0.00517812 -0.0049133101
-0.032607801 -0.0035177201 -0.00182965
0.039487801 -0.00227689 -0.0062782899
0.039799299 0.00030322402 -0.0067004897
-0.039928697 0.062998399 -0.00449365
-0.0402711 0.065633796 -0.0019564
-0.0396058 0.066281699 -0.00184623
0.040705897 0.066434197 -0.0098935403
0.038803197 -0.0089847296 -0.0045113801
0.036996897 -0.0062898896 -0.0064351
0.038804099 -0.0042441501 -0.0068268096
0.043469004 -0.00462711 -0.0046969997
-0.033767201 0.0147083 -0.0023404099
0.043908402 0.048298799 -0.0050041699
0.0400832 0.060249101 -0.00695732
-0.034407798 0.061679602 -0.00055016001
-0.040049702 0.0646125 -0.0018126899
-0.038916998 0.066530302 -0.0017155999
0.045465499 0.065352306 -0.00419957
0.036383204 -0.012879799 -0.0028347399
-0.025187701 -0.0090344297 -0.0037202002
0.0189416 -0.0078585697 -0.0024556799
-0.037681799 0.019858699 -0.000294795
0.043935698 0.030346399 -0.0041145501
-0.0384016 0.059102498 -0.0017664799
-0.0399074 0.065470591 -0.000993339
-0.039420199 0.066190302 -0.00058295496
-0.031523898 -0.0104363 -0.0024189001
-0.032472599 -0.0093349395 -0.00109105
-0.027424401 -0.0082748504 0.0034624501
0.038092501 -0.0051505798 -0.0054938695
0.041960798 -0.0067599602 -0.00329405
-0.031640802 -0.0051439898 0.000457385
-0.032630797 -0.0023545302 0.00097065803
0.043877602 -0.00261029 -0.00373022
-0.033257402 0.00120774 -0.00050587999
-0.033105999 0.008133119 0.0019135199
0.0438588 0.013150799 -0.0065201903
-0.038054902 0.056525201 -0.00168339
0.040017199 0.053032201 -0.0052195601
-0.033797402 0.031412203 0.00077915506
-0.039803002 0.065640703 0.00053606601
-0.0350377 0.064574599 -0.00158447
0.045687597 0.064018302 -0.00396225
-0.037112702 0.0664405 -0.0023081999
0.042100102 0.066999398 -0.0124803
0.043516498 0.0667677 -0.0106279
-0.0082796402 -0.0113484 0.0011610601
0.036996298 -0.0119516 -0.00235005
-0.0238807 -0.0088223498 -0.0012716401
-0.028644999 -0.0081012901 -0.0018973701
-0.037636299 0.0038504601 -0.00174143
0.039419301 -4.7710499e-05 -0.00259427
0.0439112 0.057621699 -0.0027465601
0.044341799 0.059783299 -0.0046016001
0.045508899 0.063069597 -0.0022279001
-0.0399656 0.0655872 0.00092455698
-0.039671902 0.066009499 0.00092009193
0.034040201 -0.0137295 -0.0031262501
-0.021285601 -0.0131559 0.0034511101
0.0316737 -0.0083535705 -0.0093005691
-0.037278999 -0.00391874 -0.0012054698
0.038375501 -0.0049490398 -0.00371029
0.042802799 -0.0052455002 0.00052215601
0.038714297 -0.00363858 -0.0045266496
0.044004399 0.00361914 -0.0025845501
0.043828301 0.0146954 -0.0024355098
-0.039412603 0.0628566 0.0015177199
-0.033930302 0.062078901 0.0024909
-0.0341179 0.064539298 0.0037763
0.040442001 0.065303199 -0.0053476198
-0.034865104 0.065414205 0.00272759
0.044686798 0.066374399 -0.0024154799
-0.028134901 -0.013748999 0.0043818797
0.035185002 -0.0136435 -0.0018540099
-0.0165329 -0.0085771503 -0.00070187298
0.038957499 -0.0039137597 -0.0031555803
-0.0378602 0.034594603 -0.00020952499
0.039917197 0.034957297 -0.00329625
-0.039733801 0.064587504 0.0012405
-0.039583098 0.065453798 0.0021542301
-0.035454202 0.066018097 0.00277682
0.041057099 0.066401102 -0.0033998899
-0.029453799 -0.0135976 -0.0013907799
-0.0261217 -0.0141176 0.0037757102
0.034609698 -0.013703001 0.00032085401
0.0098689403 -0.0107416 -0.00048034801
-0.036038302 -0.0061144503 0.0013742599
-0.030439999 -0.0066072801 0.00113339
-0.031114301 -0.0047039399 0.0040161801
-0.037300203 0.0092840996 0.0017692201
0.0399809 0.059658796 -0.00166898
0.043923598 0.054982103 -1.45001e-07
-0.033801399 0.053741299 0.0022477801
-0.032809898 0.061253499 0.0064149899
-0.039192401 0.066184804 0.0024885801
-0.038927399 0.066487297 0.00116199
-0.036505498 0.066514701 0.00281641
0.045068499 0.065726399 -0.00057374302
0.041773602 0.066808894 -0.00473801
-0.0309713 -0.0105826 0.0017529599
-0.025829101 -0.00876165 -0.00032512302
0.0435239 -0.0032684901 9.3105096e-05
-0.032214299 -0.000118823 0.0044696601
-0.037317798 0.037904203 0.0031973198
-0.032642599 0.0125138 0.00434655
0.043708898 0.0401894 -7.7794495e-05
-0.037780799 0.058940202 0.0026293001
0.043916903 0.059214503 -3.3998302e-05
-0.039208401 0.065660104 0.00474294
0.045382001 0.064702697 2.6646501e-05
-0.029249098 -0.0128997 0.0040344303
-0.0269772 -0.0141073 0.0050029103
0.033339802 -0.013696199 0.00121047
0.035293099 -0.0133541 0.0025964701
0.021153901 -0.0115278 0.0018977601
0.037866402 -0.010082601 -0.0018432901
-0.034830101 -0.0075230598 0.00103678
-0.029329101 -0.0065691299 0.0053503397
0.035931502 -0.0072699501 -0.00291
-0.036217801 -0.0046171797 0.0041199098
0.037156202 -0.0063662902 -0.00251453
-0.036951698 -0.00277979 0.00194757
0.043990601 0.00317818 0.00101622
0.043525901 0.057544701 0.0027355799
0.0404124 0.065220103 -0.00203093
-0.037721597 0.066613197 0.0049360199
0.040678199 0.065928802 -0.0018988
0.044007599 0.066614307 -0.00047877402
0.036217101 -0.012583999 0.0022192199
-0.031695403 -0.00943847 0.0031721902
0.037479199 -0.0102846 0.0012185799
-0.033481501 -0.0076039499 0.0064293398
0.033477403 -0.0082440795 -0.0024041799
0.038571902 -0.0090313302 0.00087408797
0.043740503 0.0090896394 -0.000109793
-0.037208598 0.057451598 0.0041641798
0.045152999 0.0634574 0.0023448602
-0.033717699 0.065289393 0.0063568903
0.041221403 0.066546306 6.6701701e-05
0.041190498 -0.0069072703 0.0026815501
0.0382559 -0.0051308498 -0.0014008901
-0.031294599 -0.00259143 0.0060952203
0.044034101 0.00594965 0.00108248
0.043838002 0.0077131898 0.00147972
0.043386001 0.018673901 0.0021845801
-0.036459703 0.042880796 0.0067254296
-0.033073299 0.029376101 0.0041339598
0.043722901 0.050792199 0.00115041
-0.039023198 0.064669296 0.00489674
-0.038342498 0.066220999 0.00542631
-0.034383498 0.066010006 0.0064828605
0.040380202 0.065706804 -0.000194698
0.044263501 0.066303596 0.0023624001
0.043532699 0.0669448 -0.0026160199
-0.030258 -0.010415301 0.0050430899
0.037064604 -0.0102113 0.0043290099
-0.034700099 -0.0062843598 0.0066453097
-0.0292334 -0.0054890802 0.0082091903
0.039179198 -0.0025448101 0.00170375
0.043788899 0.00089438801 0.00090527197
0.044468399 0.0047428096 0.0018861198
-0.036036 0.028631499 0.0076845698
0.043539297 0.0089642899 0.0029390401
-0.032052897 0.0254125 0.0072035203
0.043403 0.047541801 0.00283944
0.044305302 0.052577205 0.0019956401
0.044208698 0.054256499 0.00166879
-0.038673699 0.065518998 0.0057948297
-0.036488 0.066653095 0.0062158499
0.044983301 0.0654511 0.00177437
0.0405811 0.066423699 0.0013490501
-0.026625901 -0.013856201 0.00812444
-0.0125138 -0.0083344001 0.00921793
-0.027634501 -0.0071173101 0.0082515692
0.037117198 -0.0056901695 0.00234542
0.0407691 -0.00646867 0.0064721196
-0.030127799 -0.0038243402 0.0082185296
-0.036381502 0.0071281204 0.0059331199
0.044123597 0.00172273 0.0025462401
0.044717096 0.0053842599 0.00230787
0.044357698 0.051164299 0.0028560399
-0.038321998 0.063077495 0.0068407794
-0.0331508 0.063866697 0.0063048503
-0.038175501 0.065620497 0.0085634906
-0.032620601 0.0654293 0.0095129106
0.039905898 0.065029405 0.00184501
-0.0379811 0.066131502 0.0080425395
-0.033337798 0.066124804 0.0094039198
0.044652097 0.065316305 0.0037795403
0.041863199 0.066885494 0.00062953902
0.042715799 0.066966198 0.0012676299
-0.022391399 -0.014138999 0.0124732
0.028554101 -0.012617201 0.0035842098
-0.024535 -0.0087984893 0.0054120696
0.0081322296 -0.0077728005 0.00256603
-0.034731798 -0.0054218704 0.0082931304
-0.0355247 -0.0035951301 0.0076440498
0.038167302 -0.00452 0.00193961
0.042848401 -0.0040697297 0.0034848701
0.043399699 -0.00068092102 0.0036001001
0.045109503 0.0021909398 0.0035382099
0.044743303 0.0032810301 0.00252985
0.045961399 0.0033000801 0.0033620901
0.044345297 0.0068153702 0.0024868301
0.0439189 0.0081673292 0.0035121802
0.043561 0.048940301 0.0037895602
0.045424599 0.051731497 0.0034265101
0.045245998 0.052686103 0.0028965198
0.045200199 0.053608499 0.0028785099
0.0449191 0.054601699 0.0033168003
0.044472698 0.054214299 0.0023676702
0.043433201 0.059858602 0.0043016002
-0.030624399 0.062224798 0.0116815
-0.031677902 0.064396799 0.0103322
-0.035146199 0.066503003 0.0069988496
0.0400865 0.065955296 0.00270011
0.043550998 0.066676304 0.0028743898
-0.027507002 -0.013308699 0.0078660995
-0.028182801 -0.012519 0.0077399807
0.034474798 -0.013399499 0.0058777197
0.022384999 -0.0120319 0.0082966099
-0.030115997 -0.00936855 0.0087485509
-0.023032101 -0.0088796299 0.0047949399
-0.0103961 -0.0082942303 0.0065219202
0.038111001 -0.0089465203 0.00486144
0.033780899 -0.0078474106 0.0022279299
-0.027912799 -0.0058834599 0.0105331
0.042828299 -0.00182088 0.0057968898
0.047747899 0.00357185 0.00399247
0.0481194 0.0044045998 0.0041135503
0.045779597 0.0048801401 0.00308541
0.0453512 0.0060977 0.00327296
0.0475237 0.0051645297 0.0040653897
0.043912899 0.049682498 0.0040177004
0.044693999 0.050537497 0.00417411
0.047180403 0.053248603 0.00369499
0.047247998 0.054277904 0.00390586
0.045139 0.055790596 0.0047383299
-0.036856998 0.0595484 0.0073132999
0.043901004 0.061787497 0.00553344
0.044416402 0.063679002 0.0063530402
-0.0370524 0.066558897 0.0088841701
0.039953299 0.066318601 0.00429455
0.044231702 0.065928593 0.0039216997
-0.025270199 -0.0140834 0.0093600303
0.033778802 -0.013809499 0.0041764998
0.035641998 -0.012588399 0.0055166897
-0.029401299 -0.0103321 0.0078434898
-0.025373599 -0.0081286095 0.0090917395
0.043863602 0.000140328 0.0043449798
0.044790901 0.0012967701 0.0041028801
0.044512801 0.00055191701 0.0049770596
0.045783199 0.00124446 0.0048453105
0.050082803 0.0028752999 0.0048607998
0.0474515 0.00181462 0.0047924998
0.051322002 0.0036309802 0.0050069196
0.050046999 0.00510776 0.0050025298
0.046839498 0.0061234897 0.0044035502
0.0447938 0.0072242497 0.00398156
0.0435271 0.0090962294 0.0059665898
0.043157004 0.0099633802 0.0052782698
-0.0306719 0.0013444399 0.0092958305
0.042914201 0.011895 0.0047963299
0.0392939 0.052405704 0.0032030898
0.046801101 0.051745199 0.0042232
0.049286 0.052810598 0.0044503501
0.049026199 0.052180499 0.00470505
0.050905697 0.053511899 0.0047647301
0.049543098 0.054404199 0.0044885101
0.046974201 0.055098198 0.0045486796
0.0443343 0.056515999 0.0043933904
0.043676499 0.057775002 0.0041660299
0.0433755 0.058897704 0.0051321601
0.039283998 0.065248102 0.0045069596
0.040898498 0.066750504 0.0034355
0.034983598 -0.012585001 0.0071183303
0.0039378097 -0.010836601 0.0043545999
-0.032444097 -0.0073665096 0.010207599
0.035061903 -0.0070349202 0.0039379797
0.041344397 -0.0045906501 0.00829113
-0.034687802 0.0038855602 0.010646901
-0.0297256 -0.00166035 0.0104794
0.043251298 -0.00084211305 0.0062854998
0.050582297 0.0021722901 0.0054197898
0.052039701 0.0043818303 0.0052476404
0.050090201 0.0057717399 0.0055693798
0.0462895 0.0070537403 0.0055356203
0.044693001 0.0079497006 0.00568339
0.042501301 0.010339 0.0077294903
0.0424002 0.0132348 0.0066816099
-0.035053398 0.043501701 0.0107333
0.0428195 0.038435001 0.0053409999
0.0436063 0.049182702 0.0054396
0.046930399 0.051095199 0.0052095903
0.0515339 0.052421201 0.0051452802
0.049712002 0.055082601 0.0049781799
0.0441573 0.057399102 0.0059500299
0.043658502 0.058036797 0.0058491202
-0.031100202 0.041803099 0.010353401
-0.038033903 0.065238498 0.0087755099
-0.037148103 0.065947697 0.0109142
0.044188596 0.065463096 0.0060917102
-0.035635103 0.066573501 0.0118878
-0.023038201 -0.0141167 0.012790101
-0.027952101 -0.0109806 0.0102038
-0.0057514003 -0.0119086 0.0107005
0.014462401 -0.0115593 0.0102043
0.035491101 -0.0103312 0.0087963892
0.0365621 -0.010081301 0.00675759
-0.021516999 -0.0086860005 0.011037299
0.036979102 -0.0090659801 0.0084548704
-0.033396199 -0.0056849197 0.0112647
-0.025338802 -0.0070654997 0.012699701
-0.027342999 -0.0045509501 0.0132301
0.037582401 -0.0040974799 0.0054278001
0.043866798 -0.00016939201 0.0061293403
0.0500638 0.00133342 0.0062215598
0.0532251 0.0028488101 0.0058036996
0.052813303 0.00203649 0.0062445598
0.053599499 0.0037419 0.00562107
0.055813998 0.0042613503 0.0063221403
0.052579999 0.0051691099 0.00580798
0.038163103 0.0469799 0.0064979801
0.042640202 0.046544604 0.0064773201
0.0427275 0.0480588 0.0076831197
0.043141898 0.048873503 0.00820834
0.050203301 0.051251203 0.0060193301
0.054230101 0.0526236 0.0057497905
0.0536757 0.0516694 0.0059084604
0.052766602 0.054059297 0.0056668902
0.053820699 0.0542266 0.0063358597
0.0451358 0.056752302 0.0064276801
0.0429447 0.059218001 0.0060639903
0.042652 0.0602809 0.0079830904
0.039475702 0.062475301 0.0043534199
0.044120096 0.062584504 0.0070712594
-0.030341601 0.0651263 0.0134982
-0.031246701 0.066113502 0.0135215
0.039142702 0.065831706 0.0060415701
0.0394793 0.066435501 0.0066194804
0.043687399 0.0662921 0.0055325301
0.031153401 -0.0137408 0.0082506798
0.023730401 -0.012531599 0.011606301
0.034147497 -0.012872701 0.0081805494
0.016801901 -0.0079582203 0.0070822001
-0.027941501 -0.00256027 0.013496299
0.042317297 -0.00189023 0.0078606801
0.0446552 0.00018585302 0.0064810701
0.055741798 0.0031968001 0.00648179
0.055484902 0.0050840001 0.0065467902
-0.034540799 0.0223657 0.0115282
0.048469104 0.0066000605 0.0061212201
0.0440742 0.0084989993 0.0073900698
0.0447345 0.049998701 0.00609397
0.046740301 0.050579797 0.0064093596
0.0526537 0.0506716 0.0068161003
0.055443197 0.050411601 0.0066707702
0.056341302 0.051207196 0.0063969297
0.053867899 0.0534284 0.0056596096
0.057361402 0.0518017 0.0066702096
0.055407297 0.053205699 0.0063909702
0.048085898 0.056030702 0.0064327205
0.0429154 0.058743197 0.0077301301
-0.036864497 0.063138902 0.0111799
0.043530099 0.065808192 0.0076781502
0.0428124 0.066671595 0.0066738203
0.040240899 0.066734001 0.0059758001
0.0425536 0.066966198 0.0047295298
-0.024740901 -0.013833201 0.0116629
0.031955801 -0.0136481 0.0096535506
0.037843201 -0.00249212 0.00658094
0.043084498 -0.00086913101 0.00784449
0.044071399 -0.000226716 0.0086538699
0.045715101 0.00048885902 0.00642697
0.053597599 0.0012285199 0.0076989098
0.056466799 0.0023055698 0.0075339698
0.059052102 0.0038835197 0.0076673599
0.058467995 0.0047919406 0.00694957
0.057762504 0.0053336802 0.0068229297
0.053945102 0.0055032303 0.0066710906
0.053234898 0.0061614397 0.0077774702
-0.035380799 0.057371102 0.0101509
0.043684799 0.049503699 0.008905909
0.0549873 0.049924903 0.0071058897
0.058270197 0.049693696 0.0068306094
0.056790501 0.052966803 0.0069338703
0.0449543 0.057112299 0.0078646103
0.043792803 0.057654399 0.0078350902
-0.029534798 0.063462198 0.013814101
0.043620203 0.063854098 0.0090494398
-0.036310099 0.066120006 0.0119509
0.038816102 0.065971203 0.0074011507
0.042167701 0.066549003 0.0093350606
0.0414772 0.067036107 0.00562105
0.033510201 -0.012576701 0.0100801
0.033311199 -0.0071370602 0.0078194905
0.0358654 -0.0058769998 0.0064029498
0.041361101 -0.00181519 0.0101426
0.042396899 -0.00100962 0.0092092892
0.046078701 0.00019731901 0.0089889895
0.054459594 0.00087716698 0.0091943303
0.060889702 0.0061023599 0.0078366604
0.058762901 0.0068913796 0.0076848404
0.060821701 0.0071124202 0.0077298107
0.059345502 0.00638462 0.0073071895
0.042468201 0.0098260501 0.0085349502
-0.029836301 0.030863199 0.0125467
0.0412632 0.037241198 0.0099566299
0.060268395 0.044851601 0.0076474897
0.056880198 0.047868002 0.0077664303
0.058155298 0.048333801 0.00716438
0.0590307 0.048361301 0.0071525602
0.060033798 0.0473979 0.0073259501
0.053272098 0.049705699 0.0082070399
0.044759899 0.050028495 0.0100135
0.047117196 0.050349403 0.0082286997
0.050240703 0.050467499 0.0077368594
0.060187198 0.0489024 0.0076433504
0.059662998 0.050554901 0.00798315
0.057958595 0.0525801 0.00786159
0.055375405 0.0540318 0.0072768005
0.042580299 0.0583582 0.0092319297
0.0417266 0.059163302 0.010051699
-0.036700699 0.0654805 0.0119078
0.038091 0.065856904 0.0089791808
0.0395354 0.066779196 0.0083871204
0.043214701 0.065572903 0.0090733804
-0.026171898 -0.012933699 0.0113074
0.033877999 -0.010691101 0.0114739
-0.017079201 -0.0085682999 0.0132138
0.038114797 -0.0068714097 0.0120462
0.043096598 -0.00035405401 0.009775931
0.057607301 0.0019263501 0.0095469104
0.060311399 0.0041875197 0.0086872792
0.055156399 0.0058009201 0.0072672302
0.046916101 0.0073613301 0.0072318004
0.052371494 0.0067653903 0.0092545897
0.062015802 0.0063641397 0.0085495701
0.046234902 0.0075964304 0.0080257999
0.0601734 0.0079966001 0.0080355396
0.061962504 0.0092280302 0.0081287008
0.062663399 0.0089446297 0.0082141198
-0.028205201 0.0013721699 0.014045499
0.061353296 0.037891902 0.0088135405
0.062715501 0.039626203 0.0082189701
0.0619132 0.0391763 0.0082801301
0.063177802 0.0406604 0.0083886292
0.061811399 0.041822702 0.0079658097
0.0623446 0.043384701 0.0080627501
0.060054403 0.043821499 0.0078974999
0.061306596 0.044609003 0.0078155799
0.061972696 0.045133498 0.0081877606
0.062058799 0.046533801 0.0085139107
0.060805697 0.047178499 0.0076409196
0.0507477 0.050083101 0.0092302803
0.060922403 0.048652597 0.0082283299
0.051282603 0.056040198 0.00808156
-0.0288679 0.052148897 0.014684101
0.044196799 0.057165902 0.0095816497
0.036804698 0.059118003 0.0102612
0.0424808 0.063204102 0.0117982
0.043415599 0.062444501 0.0089265006
-0.035241999 0.066046901 0.0143623
-0.034062002 0.0665759 0.0150839
-0.032644298 0.066522598 0.0124698
-0.024297701 -0.012883 0.0143364
0.0040789498 -0.012574701 0.019351501
-0.027482599 -0.0095198695 0.0136948
-0.016393799 -0.0082734898 0.014599301
-0.0204797 -0.0082539795 0.0156647
-0.032663699 -0.0047031399 0.013644901
-0.033402499 -0.0027033 0.012957799
0.041572101 -0.00062600203 0.010939902
0.046063203 0.000339522 0.0105938
0.059102099 0.00299539 0.0090011898
0.0572818 0.0065400102 0.0078685796
0.043576699 0.0083530303 0.0095121404
0.0451921 0.0074106902 0.0109729
0.063099898 0.0074998597 0.0090592299
0.063255101 0.0105923 0.00844994
0.062721297 0.0113527 0.0084942104
0.064305998 0.0114901 0.0089086499
0.063203998 0.014009399 0.0088066198
0.063981198 0.013831601 0.0087635303
0.063251503 0.0166483 0.0091099096
0.0648081 0.014531399 0.0090701301
0.063991703 0.016582701 0.0088755703
0.0649326 0.016995702 0.0089739198
0.064218596 0.0183581 0.0087642092
0.063235998 0.018747801 0.0089092394
0.063593298 0.031037301 0.0088693704
0.062839001 0.032878503 0.0088518104
0.064325899 0.0311468 0.0087587703
0.064879201 0.0331106 0.0088836905
0.062238902 0.034954797 0.0088636195
0.064279899 0.036321901 0.0087847803
0.063612901 0.035646699 0.0085094403
0.062851101 0.036794201 0.0084296707
0.064222999 0.039259601 0.0089535909
0.036774103 0.0468335 0.0101658
0.060033601 0.041713499 0.0084280903
0.063681707 0.041411303 0.0088413097
0.058559902 0.044608898 0.0083036702
0.063112803 0.043545898 0.0086615104
0.062632903 0.045245498 0.00892583
-0.033441104 0.057068598 0.0143087
0.041433297 0.048294898 0.0109711
0.053907502 0.049010102 0.0088959998
0.043214802 0.049664199 0.0105987
0.052167304 0.049561799 0.0099946903
0.047139499 0.050321799 0.0097297598
0.060811102 0.049649701 0.00916309
0.0558559 0.054710001 0.0103494
0.053989001 0.055343699 0.0090017598
-0.034822501 0.059499301 0.0125539
0.042053699 0.057327997 0.0113442
0.043150701 0.057655901 0.0094043706
-0.034750998 0.063030794 0.0155627
0.0379842 0.061754502 0.0086233402
0.0382661 0.064890295 0.0076910802
-0.0294719 0.066573195 0.0175681
0.037473097 0.065871701 0.010497
0.038685702 0.066544697 0.0093064299
-0.022797 -0.0137897 0.0146781
0.028321799 -0.0136803 0.0127665
0.030688101 -0.0134156 0.0122051
0.0321493 -0.0132761 0.0107559
-0.0260428 -0.010732999 0.014084799
-0.029833 -0.0075057 0.014854801
-0.031200001 -0.00635423 0.0145643
-0.025878098 -0.00565523 0.0142534
0.038785301 -0.0053512999 0.0133451
0.044006303 0.00027143999 0.010827499
0.052577704 0.000397967 0.011314
0.061638404 0.0044714198 0.0107269
0.050557595 0.0070523904 0.0099152196
0.054869302 0.0069860304 0.0099808592
0.062697902 0.0056612701 0.010647601
0.042768799 0.0091554504 0.0090625491
0.0602732 0.0100034 0.0095106605
0.064648196 0.0102283 0.0098174699
0.061429001 0.011411 0.0092168907
-0.032962598 0.028943101 0.014899701
0.065243892 0.0129124 0.0096533094
0.062075503 0.0132837 0.009363519
0.065686397 0.016869102 0.0095647294
0.062825099 0.021802099 0.0093437303
0.063444301 0.020490199 0.0090803104
0.064684406 0.020441098 0.0089045893
0.0661911 0.021852899 0.0095398901
0.065588698 0.021581801 0.0091672298
0.062473398 0.030846599 0.0094497707
0.062391002 0.0256938 0.0097567597
0.063949801 0.0263939 0.00901963
0.040283699 0.017549999 0.0121532
0.065835193 0.028861299 0.00938043
0.0649601 0.030248899 0.0089890203
0.061692201 0.034620501 0.0093546007
0.065656498 0.032663099 0.0095287105
-0.0275493 0.023731001 0.0159811
0.060434602 0.038010899 0.0096191596
0.065264098 0.035539001 0.0094365496
0.064951107 0.037368599 0.0095108096
0.0584867 0.042001802 0.0095105302
0.057069499 0.045546398 0.0090168305
0.055896699 0.047390703 0.0088694198
0.063563704 0.0435316 0.0094170803
0.062628299 0.0462275 0.0099250404
0.054726202 0.047952801 0.0097018201
0.042239398 0.049101897 0.010668701
0.049642701 0.050214 0.0113664
0.0380066 0.053267598 0.00795699
0.059003402 0.052088998 0.010499699
0.043257002 0.056965303 0.0111378
0.049824201 0.056748401 0.010119
0.0411986 0.058040898 0.0114676
0.040462799 0.0591093 0.0124472
-0.027022799 0.063047796 0.0173783
-0.0354339 0.065433607 0.0146928
-0.027775999 0.065176398 0.017444201
0.037998501 0.066542402 0.0108862
-0.022863198 -0.0104971 0.018520398
-0.014862301 -0.0132598 0.0154919
0.031266 -0.012623 0.0135903
0.0034303602 -0.0081410604 0.0138632
-0.0219051 -0.00715103 0.017000901
0.032856502 -0.0063823098 0.0114156
-0.024699498 -0.00347033 0.017728001
0.036355101 -0.0021778301 0.0105751
0.038646497 -0.00342381 0.0150495
0.040203702 -0.00060557196 0.012786699
0.041011401 0.00027877101 0.012420399
0.042667799 0.00038133602 0.0115132
0.055893004 0.000998175 0.0112107
0.057210602 0.0070978501 0.0088124899
0.056463905 0.0080021601 0.0117624
0.064332798 0.0084184706 0.0109703
0.059288196 0.0084243398 0.0089118406
0.040695302 0.0108068 0.0114999
0.065777801 0.013372099 0.0104612
0.062292896 0.0173897 0.0099950004
0.0624067 0.020083299 0.00993028
0.066524103 0.019246999 0.01045
0.066913106 0.023456499 0.0109907
0.066505894 0.023930401 0.0100161
0.066359103 0.029090101 0.0100681
0.066060096 0.032954499 0.010247501
0.065327697 0.037422199 0.0101705
0.056370996 0.0453775 0.0101144
0.064518794 0.040989701 0.010108599
0.041165799 0.046734102 0.0105757
0.0535626 0.048592098 0.010685502
0.062934801 0.0456274 0.0121179
0.041978799 0.050274502 0.0123553
0.044144198 0.050333899 0.0115755
0.0466724 0.050445903 0.0112922
0.057869703 0.053166598 0.0118293
0.052728999 0.056088399 0.0105676
-0.026571801 0.048654996 0.017949698
0.040321801 0.057994097 0.012583999
-0.028416598 0.066106394 0.0178093
-0.033906601 0.066768505 0.012303701
0.042416699 0.065900907 0.0106876
0.040936299 0.066572197 0.0123858
0.0395821 0.066970803 0.0103185
0.028358702 -0.013708201 0.0140431
0.0273361 -0.0084395707 0.0053460398
0.037596297 0.0023502901 0.0090182107
0.041718699 0.0012903 0.012755699
0.0598181 0.00284934 0.0114473
0.042873301 0.0078951297 0.011400798
0.0446623 0.0070159896 0.012356
0.0527355 0.0070551201 0.0113744
0.041447397 0.0089015104 0.0113315
0.059541397 0.0110038 0.0114638
0.0607154 0.013204699 0.010942899
0.0653442 0.011008 0.0112843
0.061418097 0.031628001 0.010552799
0.066853695 0.028437901 0.0114067
0.060080599 0.0353305 0.011415901
0.065899692 0.035568498 0.0110432
0.040638696 0.049756102 0.0129482
0.043561298 0.050830901 0.012429
0.034778301 0.058536399 0.014097901
0.0501846 0.056338899 0.0127025
0.0346747 0.061273105 0.0146771
-0.033946801 0.066096097 0.0164009
-0.031227401 0.066794403 0.018471001
0.042305801 0.064966902 0.0120432
0.0411602 0.065912299 0.013772001
0.037382498 0.066505298 0.011935299
0.040739797 0.066950396 0.010488401
-0.0042693904 -0.0130367 0.0204244
0.029722299 -0.0084248204 0.0058476399
0.033177502 -0.00946029 0.0143647
0.029491898 -0.0080271 0.0107505
0.035449099 -0.0046818303 0.010096299
-0.031896699 0.0063157403 0.0163667
-0.0252633 -0.0010459 0.0178257
0.0511836 0.00069280097 0.0130906
0.0402233 0.00205396 0.0139488
0.043297101 0.00142992 0.012620801
0.055068899 0.00078295299 0.0126501
0.041071601 0.00265026 0.0136765
0.0424379 0.0025184299 0.0133847
0.057706498 0.0016571099 0.0133717
0.0414031 0.0075023198 0.0126724
0.042915601 0.0068890201 0.012776201
0.048945401 0.0068291603 0.012364
0.0405032 0.00865517 0.012681199
0.054759603 0.0074063502 0.0120259
0.057557702 0.0086401301 0.0117503
0.0587871 0.0099299494 0.0116839
0.039524503 0.0084116291 0.0140458
-0.0267717 0.0059797699 0.016458999
0.066127405 0.013690899 0.0121791
0.066817299 0.019789901 0.011857601
-0.031830799 0.0441144 0.01701
0.059007801 0.038304199 0.0115262
0.064537697 0.0407818 0.013451999
0.0396396 0.037990399 0.013673501
0.055732001 0.045765702 0.0112325
0.039519101 0.047968604 0.0140184
0.052270103 0.0493844 0.013241
0.050955199 0.049966101 0.0126136
0.0479999 0.050827004 0.013057299
0.040805899 0.051014401 0.013471501
0.042358503 0.051509798 0.013249899
0.043738298 0.051855803 0.013468799
0.0453877 0.051127203 0.0130384
0.060599901 0.050075196 0.0117681
0.041151296 0.056562103 0.0128265
0.042003103 0.056163102 0.0128437
0.040394198 0.0566613 0.0133324
0.043202098 0.056514002 0.012309
0.039678998 0.057605602 0.014244201
0.0403773 0.060205899 0.013967
0.036797099 0.066033401 0.012272999
-0.0211525 -0.012687899 0.018205799
0.026553899 -0.0138235 0.015710499
-0.0248986 -0.0097715501 0.017168898
-0.030182401 -0.0046058698 0.017881099
-0.031114798 -0.0032276898 0.017007601
0.044789299 0.00175508 0.0132055
0.046203099 0.00089686905 0.012321601
0.054129295 0.00103505 0.014074999
0.039200198 0.00098867202 0.0146732
0.043172199 0.0033722601 0.0138792
0.040382702 0.0048606298 0.014062999
0.041432399 0.0041257301 0.0138382
0.042679101 0.0042285901 0.013963801
0.059851397 0.00290662 0.013412699
0.0413967 0.0059789899 0.013538701
0.0390242 0.0047755698 0.015098301
0.043173302 0.0060387598 0.0135452
0.061641403 0.0043498003 0.0134703
0.040324602 0.0068603097 0.013654101
0.0490143 0.0063432204 0.013825799
0.063806102 0.0070644496 0.0131511
0.065255702 0.0103589 0.0130833
0.0607168 0.0183772 0.012491399
0.066931203 0.0218712 0.013019301
-0.025174201 0.0232509 0.019016501
0.060376801 0.031621799 0.0124491
0.054776002 0.0470265 0.0118636
0.0613253 0.048550799 0.0131788
0.039978802 0.051969301 0.014304499
0.041472502 0.0528749 0.013905101
0.042945899 0.0528454 0.0138704
0.059445202 0.051367499 0.0128673
0.040610801 0.053517897 0.014130101
0.041618902 0.054620396 0.013745099
0.040558599 0.055100203 0.0138706
0.055966496 0.054193597 0.013291401
0.053622 0.055453099 0.012753899
0.039370701 0.056341302 0.014745401
0.036591202 0.0648067 0.0114868
-0.033090401 0.065837599 0.018240299
0.041030601 0.064957902 0.014672799
-0.032598801 0.066490196 0.0178455
0.0361416 0.066656001 0.014822001
0.037562802 0.066863701 0.0132928
0.039023496 0.066809796 0.0150808
-0.014157601 -0.0085747503 0.014739899
-0.0095325699 -0.0086519998 0.019268
-0.000423024 -0.00856998 0.0214155
0.0294146 -0.0068912404 0.0152655
-0.0232819 -0.00541681 0.017952999
0.053550601 0.0015694899 0.015178099
0.056507699 0.0016172 0.014632399
0.045056701 0.0035880201 0.014653401
-0.029426301 0.0108173 0.020058202
0.042667303 0.0050342302 0.0139101
0.044356499 0.0050818902 0.014496701
0.052032299 0.0066849599 0.0139716
0.057812698 0.0096432697 0.013756099
