# .PCD v0.7 - Point Cloud Data file format
VERSION 0.7
FIELDS x y z
SIZE 4 4 4
TYPE F F F
COUNT 1 1 1
WIDTH 1303
HEIGHT 1
VIEWPOINT 0 0 0 1 0 0 0
POINTS 1303
DATA ascii
0.0208009 0.13375701 -0.0165211
0.029600998 -0.094431393 -0.0128094
-0.034819599 -0.083153099 -0.0060346299
0.037279598 -0.080580704 -0.0134051
0.0387742 -0.072370693 -0.015350701
0.0401983 -0.048139501 -0.018791402
-0.024811899 0.00680866 -0.0072161197
0.037826799 0.0026794202 -0.017228801
0.034591399 0.0159328 -0.017872
-0.0157861 0.0585154 -0.0102563
0.0117877 0.084121697 -0.0156701
0.012972 0.096001506 -0.014852899
-0.014149201 0.103495 -0.009523889
-0.0120968 0.107291 -0.010642
-0.0120329 0.10732599 -0.0103235
-0.0126664 0.11153801 -0.00969801
0.027649298 0.11365499 -0.0163399
0.0165793 -0.097766198 -0.0123818
-0.035117 -0.094871297 -0.0026491899
-0.0201145 -0.094247401 -0.0055684298
-0.036286399 -0.074499294 -0.0044965902
-0.035764802 -0.072145402 -0.0048627001
-0.0362125 -0.069020599 -0.0046124803
-0.035723303 -0.063780099 -0.0052252002
-0.038478099 -0.059858698 -0.00093697105
-0.039042898 -0.050342299 0.00023032902
0.040547602 -0.0543078 -0.017511601
0.040369801 -0.035145801 -0.017565599
-0.037080299 -0.024959899 -0.0019755699
0.039093498 -0.017989701 -0.018817699
-0.032621399 0.0018774901 -0.0052745901
-0.018099399 0.0137698 -0.0080599897
-0.018592101 0.025708402 -0.0071381899
-0.016266 0.062080104 -0.0095710494
-0.0148726 0.081343599 -0.010659399
-0.013506299 0.082980797 -0.0095387902
0.0141884 0.0830082 -0.014003101
-0.014677701 0.085354306 -0.0089401593
0.0127466 0.0840206 -0.014658799
-0.0141085 0.096539497 -0.0093952306
0.013836401 0.085999802 -0.015494001
0.012991901 0.100327 -0.014638899
-0.012882399 0.104854 -0.010234999
-0.00089972594 0.124132 -0.016229998
-0.00344586 0.139954 -0.0132291
0.00062728499 0.144062 -0.0115623
0.0143556 0.14191201 -0.015539099
-0.038177099 -0.094978407 0.0060898899
0.039836399 -0.064225897 -0.016566601
-0.035357799 -0.042422 -0.0050155399
-0.0419957 -0.026055202 0.0061924402
-0.0349494 -0.0204047 -0.00470223
-0.038482703 -0.016713601 0.00085164997
0.039975699 -0.025744101 -0.017808098
-0.037285097 -0.013466601 -0.00078867108
-0.019727502 0.0112949 -0.0078443298
0.0350984 0.0184258 -0.016044701
-0.0164357 0.041659698 -0.0098162005
0.02809 0.046785899 -0.0157528
-0.018788401 0.064656503 -0.0057936502
-0.0170759 0.079109401 -0.00816477
-0.0145015 0.082911596 -0.0076695895
0.014984299 0.083538301 -0.0119936
-0.015197299 0.085693397 -0.0064495197
-0.0136968 0.11139999 -0.0081621502
0.0190164 0.13754401 -0.0155448
-0.00023461301 0.141608 -0.0158232
-0.039512999 -0.092554495 0.00091105199
-0.026652399 -0.093904004 -0.00059854501
-0.039074402 -0.076626897 -0.000258763
0.040611599 -0.0575234 -0.015940201
0.040690102 -0.045434501 -0.017128401
-0.037339002 -0.0296451 -0.0017093399
0.0392351 -0.008566631 -0.0166017
0.038727202 -0.0069609797 -0.0177298
-0.0244304 0.0065265596 -0.0029140401
-0.0176096 0.019008901 -0.0061422703
0.035958804 0.012514601 -0.016464399
-0.017686501 0.0339486 -0.0069936095
-0.0173747 0.041494001 -0.0060165701
-0.018800899 0.0476932 -0.0053685899
-0.017165501 0.0571528 -0.0066256905
0.014820101 0.084227502 -0.0118875
0.015092599 0.086723998 -0.013354599
0.013937001 0.12623301 -0.0088148899
0.017181899 0.13985899 -0.015180701
0.0254425 -0.099224702 -0.0114303
-0.038161099 -0.094851896 0.00197113
0.039976202 -0.067891501 -0.0145298
-0.039491799 -0.054864697 0.000699319
0.040445302 -0.040267602 -0.0149553
0.040226199 -0.0270922 -0.016241899
-0.033238497 0.0024015801 -0.0023968599
-0.0295504 0.0046587801 -0.0043006903
0.038722802 0.00247201 -0.015141199
-0.0217124 0.0089651495 -0.00527529
0.034442298 0.022352401 -0.0150344
0.030957198 0.038469601 -0.014652701
0.0226999 0.064778402 -0.0146845
0.017211901 0.081018403 -0.012015299
0.015497901 0.082126804 -0.014012499
0.015168801 0.085321896 -0.0120569
-0.0148027 0.0900665 -0.0067655505
-0.014693099 0.103484 -0.0071236105
0.014442 0.093107 -0.0129
-0.0116581 0.10541201 -0.0075049303
-0.0102284 0.105902 -0.0085240398
-0.0080472901 0.11882599 -0.0127386
0.022802601 0.12409399 -0.017648099
7.7065299e-05 0.12578 -0.016589399
0.0176287 0.13943601 -0.0141463
-0.041213501 -0.0827052 0.00323838
0.039431702 -0.074658602 -0.0126478
0.037022702 0.0073923604 -0.0152654
-0.0170084 0.016961901 -0.0080610709
0.035839699 0.0149471 -0.0144805
0.033384897 0.027983401 -0.015026701
0.0223272 0.068972394 -0.011877599
0.0154246 0.093102798 -0.0104174
0.013993101 0.102722 -0.0127078
0.021657301 -0.099094905 -0.0124405
0.00563095 -0.096840203 -0.0067737899
-0.039536398 -0.095031902 0.0057324101
0.039956901 -0.066787496 -0.0129165
-0.040807098 -0.0572147 0.00298631
-0.0394665 -0.0525968 0.0011046299
-0.037987802 -0.0079115704 0.00123453
0.039636903 -0.0158801 -0.0151195
-0.032384701 0.0028258599 0.00012244799
0.036885202 0.0075019896 -0.0140623
-0.018561399 0.023254499 -0.0036691302
-0.019264299 0.0290842 -0.00462671
-0.0175607 0.0359722 -0.0042800801
0.019331399 0.075835004 -0.0123507
-0.014494 0.084115304 -0.0066650002
0.0156259 0.085154898 -0.0098161092
0.016202601 0.086503901 -0.0107828
-0.013008299 0.10491999 -0.00843581
-0.0107783 0.105697 -0.0063970597
-0.0065412698 0.141642 -0.0087224701
-0.015675101 -0.094750598 -0.00030027199
-0.036275003 -0.094395801 0.0070865401
0.038615 -0.079220399 -0.0119939
-0.039932098 -0.072779104 0.00105294
0.039894 -0.070417196 -0.012580301
-0.0411456 -0.051395498 0.0033078999
0.0402698 -0.033537302 -0.015095299
-0.036267299 -0.00045087101 0.00079478498
0.038979597 -0.00445012 -0.0141876
-0.0182634 0.013720399 -0.0035476
-0.017411601 0.017642301 -0.0033410001
-0.0183843 0.0450272 -0.0034848
-0.019521201 0.0493716 -0.0024697799
0.029885799 0.043828897 -0.0125295
-0.017141398 0.059763201 -0.0060036601
0.0258126 0.0572864 -0.013019
-0.0199732 0.068101093 -0.0036788501
-0.015220501 0.085466795 -0.0041448898
0.0148783 0.102573 -0.010572501
0.0148718 0.10604201 -0.0100595
-0.0086326199 0.108854 -0.0061222399
0.0100102 0.124678 -0.0037374799
0.017639298 0.138602 -0.013237001
0.015632 0.14162199 -0.012112999
0.0304587 -0.099197306 -0.0067039295
-0.022143999 -0.0939046 0.00137868
-0.041171301 -0.064862296 0.0032592199
0.040357199 -0.0597574 -0.0139297
0.038814802 -0.055635702 -0.0098553002
-0.0409973 -0.042519201 0.00379541
-0.040114101 -0.032465898 0.0025931101
0.039163504 -0.036113497 -0.012029801
-0.0380813 -0.0228444 6.9917396e-06
0.0379133 -0.0200483 -0.0102963
0.037487999 -0.015848299 -0.0093769301
-0.036377899 -0.00178436 -0.00073939399
-0.021396099 0.0087102102 -0.00193587
-0.019510901 0.027406599 -0.00145042
0.034509301 0.022701401 -0.0131566
0.032853998 0.031153601 -0.012727601
-0.0179624 0.0554245 -0.0042612096
-0.0176796 0.062822297 -0.0052310498
-0.019253301 0.064593904 -0.00118128
-0.0195348 0.071942598 -0.0060087396
-0.018497 0.078684501 -0.0029093497
0.020620599 0.074592799 -0.00999578
-0.016460601 0.081348196 -0.0065441295
0.018359 0.080595002 -0.0082450006
-0.0148425 0.10327899 -0.0045170104
-0.0100312 0.10670801 -0.0062126298
0.016586399 0.12020401 -0.0068269903
0.030037999 -0.097830497 -0.0098729497
-0.042918701 -0.093075402 0.00699308
0.037065201 -0.086737998 -0.0098810801
-0.0197878 0.010895701 -0.00240762
0.034993898 0.0183412 -0.012342
0.031355701 0.037027698 -0.0106945
0.026328098 0.05672 -0.01089
-0.020445701 0.072421998 -0.00114043
-0.019871 0.074840702 -0.0023982502
-0.0153524 0.082779996 -0.0039177001
0.016324099 0.0832344 -0.0087660309
-0.0148731 0.095225096 -0.0042956602
0.0166994 0.086520202 -0.0083435001
0.0153969 0.10561299 -0.0080931298
0.024698799 0.120199 -0.0160734
-0.010009101 0.14172301 -0.00485822
-0.039952599 -0.094729595 0.0040804101
0.037712999 -0.085602999 -0.0086621195
-0.043032698 -0.074217007 0.0064399103
0.039231397 -0.074494496 -0.010371299
0.039014399 -0.049926702 -0.010327199
0.040720098 -0.0503354 -0.015252599
0.037528802 -0.010852898 -0.0100722
0.0383761 0.0029749102 -0.0129844
-0.019748101 0.0093323905 0.00145994
-0.019230101 0.027085502 0.00157414
-0.017863002 0.034334999 0.00056628499
-0.0173079 0.039783999 -0.00183917
-0.01921 0.051246203 -0.00371929
0.029355099 0.045715697 -0.0102254
0.026238199 0.0566593 -0.0084807193
-0.017971201 0.063114397 0.00040815404
0.0224542 0.069613293 -0.0095419902
-0.016945999 0.081322506 -0.0020139799
0.0160938 0.084624395 -0.0078695398
-0.014694199 0.0969055 -0.0019048501
-0.0146736 0.10324401 -0.0022867701
-0.0073008998 0.109459 -0.0046134302
-0.014965901 0.116855 -0.0059004901
-0.012356101 0.140475 -0.0033297702
0.0068010404 0.14070299 -0.0011742099
0.014681799 0.140845 -0.0098313503
0.0261834 -0.099283703 -0.0079079401
0.022081101 -0.097571507 -0.0066913301
-0.038536798 -0.0953364 0.011075201
-0.029463802 -0.093575306 0.0053021698
0.0383275 -0.0349852 -0.0094054099
-0.040808298 -0.0077420203 0.00607411
0.036835097 -0.0035705599 -0.0088471696
-0.025402401 0.0040329597 0.0050661704
0.035126399 0.0075774295 -0.0092020994
-0.0174303 0.0150232 -1.29459e-05
0.032739602 0.029300202 -0.0106895
-0.0179906 0.043807399 -0.00024941302
-0.019582599 0.0483745 0.000189005
-0.017449699 0.058281302 0.000191492
-0.0176549 0.0618935 -0.00030335799
-0.014795201 0.084179297 -0.0032735602
0.0165402 0.083135299 -0.0068785101
-0.014931699 0.086975701 -0.00160651
0.016070899 0.093094803 -0.0080757905
-0.010464 0.105717 -0.00354678
-0.0084243696 0.107864 -0.0034328499
-0.0055211801 0.109557 -0.0035484899
0.0241402 -0.097326502 -0.0043961699
-0.041829102 -0.094669402 0.0090029603
-0.044405103 -0.086773202 0.0096077099
0.037353199 -0.041216202 -0.0071285004
0.037494998 -0.0235576 -0.0086098406
0.037757598 -0.0179449 -0.0089710997
-0.039781801 -0.00487589 0.0056499699
-0.038001202 -0.0021647001 0.0046071303
-0.017702101 0.020825898 -5.1602501e-06
0.0325526 0.018128 -0.0074302503
-0.0192555 0.051329702 0.000110723
-0.017481001 0.080545202 0.000332803
-0.0142768 0.104211 -0.0039447797
-0.0123828 0.105196 -0.0025955099
0.016966399 0.108374 -0.0071173199
0.0087466603 0.12623301 -0.0029928
-0.0168662 -0.094526902 0.0066319397
-0.0332365 -0.0936727 0.0093887504
0.0350229 -0.093654297 -0.0075618001
0.037868403 -0.0437393 -0.0078288
0.037124101 -0.038902901 -0.0060886098
0.036816299 -0.0073445803 -0.0082430299
-0.034587201 0.0011418399 0.00251952
-0.019802298 0.065761901 -0.000239696
-0.0206239 0.070687398 0.00041230899
0.0216468 0.071737297 -0.0069351597
0.0182046 0.081250802 -0.0058765998
-0.0143442 0.084055796 -0.00118437
-0.014446801 0.087000802 -0.00020765599
-0.014109701 0.0929657 0.00029366801
-0.0117923 0.104924 -0.000138761
0.015503401 0.105638 -0.0059733801
-0.0060698697 0.108575 -0.00244498
0.017524401 0.110181 -0.00566989
-0.0110394 0.12437201 -0.0051216502
0.035761602 -0.094238698 -0.0050429502
0.036661703 -0.087985396 -0.0053310902
0.036381997 -0.0772999 -0.0034427599
0.038066901 -0.053824198 -0.0075338697
-0.0416371 -0.0082223201 0.0086626094
0.035951398 -0.0099792201 -0.0071929307
-0.039757401 -0.0050468398 0.0084116198
0.036133099 0.0033439598 -0.0076207398
-0.021610398 0.00698988 0.00274012
-0.016695699 0.0161741 0.00170498
0.0157544 0.084549405 -0.0034084599
-0.0142591 0.089292392 0.00090707105
0.016793801 0.086422995 -0.0051852898
0.0163517 0.092383005 -0.0055786599
0.0157138 0.10453601 -0.0056990799
-0.0092521096 0.105485 -0.00103957
-0.0074208202 0.10735901 -0.00091516797
-0.00817928 0.10674701 -0.00116989
0.016651999 0.108821 -0.0052636298
-0.0056353896 0.109843 -0.0022661099
0.0199965 0.111811 -0.0079907598
-0.020808902 0.117652 0.00069546403
0.010102 -0.096781097 -0.00026124201
0.034220502 -0.097190805 -0.0054280097
-0.0430989 -0.093614407 0.0098568099
-0.04414 -0.090578698 0.0104751
-0.045949601 -0.070427597 0.0127508
0.0361997 -0.051529996 -0.0034734099
0.035504799 -0.022233699 -0.0049771396
0.036590196 -0.00500888 -0.0071165301
-0.028385002 0.0020423001 0.0079718903
0.034042798 0.0095877303 -0.0080092
-0.016919201 0.018236902 0.00097172504
-0.019115102 0.029752502 0.0020295
-0.0167969 0.039419498 0.00120001
-0.017714301 0.055983 -2.6749298e-05
0.025353501 0.057585604 -0.0060127601
-0.019032499 0.065148197 0.0030626601
-0.014499301 0.085728504 0.00060504593
-0.0139809 0.098878801 0.00055509002
0.0160076 0.093867198 -0.0029561601
-0.014009699 0.103057 0.00035750802
0.0160628 0.0994085 -0.0053350902
-0.00799393 0.10712399 0.00012817299
0.015146101 0.106706 -0.0027803399
-0.0079904106 0.111724 -5.3559802e-07
0.0210882 0.115724 -0.0095193898
-0.015969399 0.120519 -0.003026
0.00733783 0.14150101 -0.0021331501
0.028921101 -0.099301904 -0.0046708295
-0.0373917 -0.0020347601 0.0066663497
0.033576801 -0.0021641201 -0.0021970798
-0.018511601 0.0117404 0.00046054399
-0.0154339 0.019844102 0.0053860499
-0.0172613 0.022456899 0.0030219699
-0.0173488 0.043959402 0.0028569701
0.027711701 0.0476791 -0.0065003796
-0.019972298 0.068595901 0.0026603502
-0.0196728 0.0749299 0.00179704
0.017562799 0.081375293 -0.0017335201
-0.013520001 0.0870241 0.0017888
-0.0137544 0.089694194 0.0016239
-0.0106428 0.105373 0.00278163
0.017190401 0.113475 -0.0046687103
0.032635801 -0.098980404 -0.0028510001
0.0340106 -0.097939 -0.0042701201
-0.011974299 -0.094854102 0.012008701
-0.035328999 -0.095375903 0.012862
-0.0450885 -0.085693493 0.011801301
-0.043576099 -0.0605583 0.0077460399
-0.043603696 -0.051567297 0.0081512304
0.037022401 -0.054800801 -0.0057848603
0.033027302 -0.018170699 -0.000193256
-0.0160791 0.014072401 0.0038387799
-0.014858 0.0170363 0.00591968
-0.015044699 0.082760803 0.00098819297
-0.013582299 0.084100403 0.0023165098
-0.0131594 0.090949997 0.00299241
-0.013090201 0.10331599 0.0026467401
0.0155805 0.10434899 -0.0032210902
-0.0082412791 0.106987 0.0010013201
-0.0083730696 0.11092401 0.0011680301
0.0152311 0.108987 -0.0024212699
0.0113291 0.117544 0.00054517499
0.028651601 -0.098622598 -0.0025647902
-0.00130383 -0.096186996 -0.00027891301
-0.040819399 -0.094684899 0.011313001
0.0345027 -0.097409703 -0.0026217599
-0.044228099 -0.087598398 0.0141884
0.034999698 -0.089009695 -0.00094036496
-0.0458684 -0.078246802 0.0131146
0.0359511 -0.068568803 -0.0025349401
-0.045637902 -0.024711501 0.013881099
0.036486696 -0.020763701 -0.0060330201
-0.023699699 0.0054788599 0.0029327599
0.033354402 0.00373238 -0.0021649401
-0.0183728 0.026879201 0.0046851602
0.029772198 0.036417499 -0.0070998305
-0.0165617 0.060819797 0.00383951
-0.0187629 0.066841908 0.00543922
0.021354999 0.070916004 -0.0041692001
-0.0134167 0.085094593 0.00273868
0.014807801 0.084282406 -0.00076037901
-0.0126535 0.10446499 0.0024258001
-0.0089016892 0.10575499 0.0016179699
-0.0147449 0.126976 -0.000254946
-0.045543902 -0.079840399 0.0146544
-0.046217702 -0.075329497 0.014120201
-0.046657003 -0.067274697 0.014955101
0.037500001 -0.062572703 -0.0060734903
-0.043590803 -0.0396653 0.0086027496
0.035062399 -0.044456199 -0.0016198
0.0353631 -0.0381447 -0.00284517
0.035683103 -0.0170798 -0.0044586202
-0.043384999 -0.012906499 0.012299499
0.0347014 -0.0151384 -0.0032971301
0.035235599 -0.0117628 -0.0045577595
0.032412201 0.0074206004 -0.00391337
0.0272259 0.032351699 -0.0027938699
-0.016004499 0.034868598 0.0052260701
-0.019080501 0.050109297 0.0036667096
-0.016784299 0.055428904 0.0043204003
-0.016595799 0.062783405 0.0050011203
-0.018035999 0.064606905 0.0049371198
-0.0180967 0.075866506 0.0064273402
-0.016641501 0.079668298 0.0050983401
0.0159781 0.083413593 -0.0037580698
-0.0131925 0.087008797 0.0031915898
-0.012296801 0.087864898 0.0040996801
0.015234999 0.100692 -0.00055904401
-0.0077624298 0.105993 0.0032544299
-0.0075131999 0.107164 0.0024822399
-0.0075473101 0.11311699 0.0025329799
0.0044018403 0.14200799 0.000464777
0.027310899 -0.097943798 -0.00023103601
0.031568401 -0.098425902 -0.0012574299
0.033992499 -0.098151498 -0.00111869
0.0054499502 -0.096191004 0.0067759501
0.014686299 -0.096521206 0.00733381
-0.046326801 -0.071566202 0.0157937
-0.046769798 -0.061054002 0.0149367
0.035464503 -0.054639399 -0.00218688
0.0345807 -0.0479341 -0.00128468
0.0347335 -0.028853202 -0.0022396599
-0.043948401 -0.0149499 0.0112166
-0.0411461 -0.0084681101 0.0117513
0.033877201 -0.0038394898 -0.0017054699
-0.017762 0.027947102 0.0068294602
-0.0162817 0.044571497 0.00603393
-0.0174763 0.051850397 0.0069196299
0.023854699 0.058388799 -0.00303412
-0.012701899 0.084177203 0.0040124198
0.0155454 0.0927651 -0.00045316402
0.0130395 0.107201 0.00095491001
-0.0020843199 0.109428 0.0020220398
-0.0041307104 0.11044 0.00397126
-0.015907699 0.14126401 0.00096302701
0.032781504 -0.097428203 0.000489028
-0.043178298 -0.091261201 0.012987999
-0.046609297 -0.066570394 0.016749799
0.034916401 -0.064519398 -0.00102757
-0.045240004 -0.019448401 0.0142625
0.032544997 -0.0049820598 -4.4434601e-06
-0.0166195 0.031521901 0.00715421
-0.0155545 0.040283598 0.00521049
-0.0185403 0.0480261 0.0051615201
-0.0162491 0.0577344 0.0042951498
-0.0191985 0.071184099 0.0063158399
0.0199489 0.073027998 -0.00169193
-0.0108731 0.083525702 0.0058420901
0.0154421 0.083117105 -0.000977483
-0.0114608 0.0845211 0.0049159797
-0.011804499 0.090108901 0.0051049599
-0.0118345 0.103613 0.0046835099
0.0150309 0.105546 -0.0018359401
-0.00117231 0.109179 0.00179195
-0.0062215803 0.110961 0.0037719298
0.0030445701 0.124982 0.0039744102
0.0208239 -0.096996903 0.0021220401
0.034472398 -0.097545303 -0.0011726499
-0.047033403 -0.050373398 0.0158138
0.034839801 -0.059349 -0.000710361
-0.0471141 -0.045566998 0.016735099
-0.046586599 -0.0362118 0.015539899
0.033044599 -0.043605201 0.00151079
-0.046075299 -0.024762301 0.015523801
0.032708 -0.0191103 0.00075803295
0.033705302 -0.0095034 -0.0023447999
-0.0172763 0.0088930102 0.0066885101
-0.0132573 0.0202474 0.0088581201
-0.014322201 0.036423601 0.0079275696
-0.017505899 0.067755699 0.0084044309
0.0193228 0.070085503 0.00054063101
-0.0128682 0.083011702 0.0048406399
-0.011854801 0.085810699 0.00552165
0.0158774 0.087833196 -0.00031512202
-0.0113478 0.104614 0.00452198
-0.0055601802 0.106966 0.00412226
-0.0049044597 0.10768399 0.0042496398
-0.00404672 0.107303 0.0041352101
-0.00504022 0.11104 0.00414631
0.0305118 -0.098336503 0.0010925999
0.0222289 -0.097696498 0.0067238496
0.033116002 -0.096710198 0.00091117399
-0.0309174 -0.095628306 0.0173025
-0.00389174 -0.095345601 0.012946101
-0.0354307 -0.094666198 0.0174242
-0.0458684 -0.0662672 0.018448999
-0.046799101 -0.063037701 0.016887501
0.031871799 -0.052260797 0.00376639
0.0336054 -0.031149399 -0.00057872897
-0.044985402 -0.018682601 0.015548101
-0.015696 0.011289699 0.0068706698
-0.0143097 0.0143077 0.0072846599
0.029347602 0.011642599 -0.0017762501
-0.0149654 0.023083 0.0079424297
-0.0140179 0.041748602 0.0081977304
-0.014342399 0.060301203 0.00784967
-0.014912101 0.063079298 0.0084504504
-0.016409799 0.078140296 0.0075856796
-0.0148546 0.081468098 0.0056442097
0.015108 0.081987299 0.00270335
-0.0100745 0.083259001 0.0072361501
0.0136658 0.083923891 0.00155861
0.015531701 0.086231202 0.00111085
-0.010234701 0.103978 0.0062892102
0.00036439701 0.109184 0.0028289401
-0.019207301 0.125 0.0041402401
0.0238974 -0.098427996 0.0088011194
0.0278713 -0.098367304 0.0052645602
0.0325494 -0.097004205 0.0016306
0.0316879 -0.0970819 0.0018956199
-0.0348485 -0.095410302 0.0156029
-0.0283779 -0.094445005 0.0152654
0.034338001 -0.092877701 0.00080318301
-0.045491003 -0.075332001 0.016788401
0.0336545 -0.0754425 0.0019781999
0.033410199 -0.068406597 0.0022394999
-0.046829797 -0.0599268 0.017606199
-0.047074102 -0.049478099 0.018155199
-0.046804003 -0.0361875 0.017143298
-0.046552602 -0.032042 0.017276
0.032209899 -0.036148798 0.00214514
-0.046008099 -0.025815099 0.017238501
0.032123901 -0.022231702 0.00168566
-0.037660997 -0.0054358104 0.0120137
-0.0188726 0.00703457 0.0070709698
-0.015136699 0.033834703 0.0079647992
-0.0151455 0.055414997 0.0081005804
-0.014387299 0.058182098 0.0080926996
-0.0163504 0.064973995 0.0084369797
0.0166387 0.080425501 0.0012322001
-0.0098623103 0.084261701 0.0067806104
-0.0085584503 0.085924603 0.0087117907
-0.0100855 0.086024903 0.0075640404
0.0146826 0.094073996 0.00161971
0.0144519 0.104663 0.000882608
-0.00108682 0.107189 0.0045312298
0.00676372 0.111311 0.0075185797
0.033218496 -0.094995998 0.00202016
0.032398701 -0.086296402 0.0046700099
-0.0468673 -0.041537203 0.018333901
-0.045480303 -0.0262981 0.018512899
-0.0152994 0.027213898 0.010484001
-0.014748 0.045184601 0.0090063103
-0.016310399 0.047821797 0.0093156407
-0.017300801 0.049605202 0.0082929302
-0.016475599 0.0514495 0.0093724802
-0.017186001 0.073808506 0.0092731705
-0.0103142 0.089616798 0.0068640299
0.0138263 0.087850198 0.00407555
0.013412801 0.094932996 0.00375644
-0.0081728492 0.104872 0.0073707299
-0.0020361901 0.10587899 0.0058848499
-0.020616101 0.14192 0.00712601
-1.7647e-05 0.14195 0.0054872101
0.030806199 -0.097653903 0.0032354197
-0.0403907 -0.087658599 0.018107001
-0.045916598 -0.034911301 0.019467801
0.032274801 -0.029117599 0.0024051801
-0.0430886 -0.0141264 0.015226799
0.030781299 -0.0146356 0.0034497001
-0.0124609 0.015784699 0.0093197804
-0.011686901 0.022932801 0.011415301
-0.016060101 0.0297288 0.0096889492
-0.012710201 0.034158099 0.0106705
-0.013945401 0.079856105 0.0090560503
0.0132591 0.083415605 0.0027953601
0.0112986 0.083595298 0.0051078
-0.0085981805 0.103544 0.0076802499
0.013146301 0.10286599 0.00356984
0.0043214797 0.107101 0.0054586702
-0.026164601 0.14035401 0.0117362
-0.0186137 0.140183 0.00334929
-0.0176729 0.14381599 0.00712696
0.029283101 -0.098601699 0.000189183
-0.032470502 -0.095324099 0.019090999
0.031132599 -0.095047101 0.0042164503
-0.0193177 -0.0945336 0.01729
0.032614399 -0.033082701 0.00187921
0.029449601 -0.028703999 0.0064907996
-0.044491403 -0.0208438 0.0176592
-0.0312327 -0.00080248702 0.0115584
0.031769998 -0.00311082 0.0016369499
0.0246558 0.0056448304 0.0094180796
-0.0133361 0.0093324902 0.011210101
0.023345601 0.0121398 0.0050661997
-0.012039199 0.040009297 0.0101835
-0.012613701 0.043834303 0.010585899
0.0213071 0.029051 0.0049089501
-0.013527399 0.055044901 0.010173501
-0.0158589 0.070990898 0.0112127
-0.014546899 0.073903605 0.012031
-0.014332401 0.077125199 0.0109129
-0.011515801 0.082306601 0.0083043296
-0.0083069494 0.092829496 0.00818149
-0.0063507198 0.10434701 0.0089417109
0.011732899 0.099376798 0.0056767003
0.0010209701 0.106308 0.0061450801
0.029881099 -0.097809702 0.0041523599
0.034249902 -0.083844297 0.00078762695
0.031005299 -0.046752602 0.0049715899
0.032579698 -0.016186599 0.0012969
0.031860001 -0.0105693 0.00136821
0.028601998 -0.0080644097 0.00546205
-0.0188592 0.0053833099 0.0099318605
0.021672601 0.019231502 0.0055826302
-0.013061699 0.037714601 0.0093018394
0.0173936 0.045998298 0.00535256
-0.0135747 0.047967501 0.0124567
-0.015498599 0.049373902 0.0109494
-0.0143891 0.051471196 0.0117551
0.0187806 0.050311901 0.0042562797
-0.012968001 0.058909304 0.0097532598
-0.0125585 0.0622501 0.0107088
-0.0153457 0.066361398 0.0105723
0.016429801 0.057057597 0.0059323204
-0.0072584101 0.083032995 0.0095425192
-0.00698649 0.083917297 0.0087229898
0.0094589498 0.083436891 0.0070097996
-0.0062327697 0.085754201 0.00997518
0.012295999 0.088768899 0.0058153598
-0.00346496 0.105392 0.0089986296
0.0117008 0.104919 0.00509169
0.0070030401 0.11655299 0.00581952
-0.025668502 0.12613401 0.0117141
-0.040182099 -0.093247101 0.0143329
-0.025773201 -0.0942619 0.013372099
0.030939599 -0.084604897 0.00643986
0.031048402 -0.074642599 0.0063303099
0.030459698 -0.067820899 0.0067841001
0.030745801 -0.0425069 0.0050715399
0.028969999 -0.030781399 0.0065670805
0.026894201 -0.020600501 0.0092149395
0.028960401 -0.017593799 0.0059956601
0.0291033 -0.00337216 0.00541355
0.027426999 0.0080172596 0.0028212299
-0.0119094 0.011931201 0.0109166
-0.013638 0.028587699 0.012560001
-0.0135109 0.030974399 0.0117755
0.018757001 0.0248169 0.0068101399
0.0201781 0.0433647 0.0040533496
0.018145001 0.037694901 0.00578953
-0.010180401 0.044252802 0.0125841
-0.0111414 0.051666401 0.0141534
0.012953201 0.081097707 0.0062881396
-0.0024170899 0.083991602 0.010032699
-0.0061891796 0.088616997 0.0097440304
-0.0061113201 0.098491207 0.0092372391
0.0099103693 0.10061099 0.0072312197
0.0096825194 0.10482 0.0070729302
0.0048584798 0.106089 0.0077524902
-0.0288062 0.12466101 0.0153108
-0.025256801 0.141818 0.012164799
0.0268893 -0.098079696 0.0080757793
0.028078601 -0.097153299 0.0070035802
0.00229897 -0.095396504 0.0159293
-0.0339633 -0.093520701 0.0204069
0.0317192 -0.077476993 0.0047971504
0.030159598 -0.037222601 0.0058756699
-0.0402551 -0.020265499 0.021981899
-0.034934796 -0.0083021903 0.018578399
0.028415302 -0.00084785803 0.0059710499
-0.0099988701 0.0194104 0.0117514
-0.012715 0.026333202 0.0125887
0.0123654 0.028371502 0.012418101
0.014868399 0.054743201 0.00671644
-0.010742499 0.059892796 0.0114686
-0.012389901 0.065749094 0.012948001
-0.0076284399 0.082359999 0.0109255
0.00812943 0.083395496 0.0082504703
0.0068898899 0.084128998 0.0084850397
0.0101687 0.089582399 0.0076966397
-0.0039900104 0.099853598 0.0099968296
-0.0036773202 0.10431699 0.0099051911
0.0077426201 0.104258 0.0083862804
-0.0012364599 0.105056 0.0099646999
0.0068022101 0.105846 0.0080393497
0.0073806597 0.106971 0.0073957504
0.0062008803 0.106773 0.0076789698
-0.0023008001 0.14073399 0.00905699
0.0171168 -0.097443201 0.0129016
-0.016122 -0.094741993 0.021576
0.029032001 -0.086105399 0.0082475897
0.032317899 -0.079939902 0.0049786502
0.0281919 -0.041971698 0.0085503105
0.027910102 -0.018911401 0.0080326796
0.0293993 0.00389892 0.0041421903
-0.0093897004 0.014310999 0.012174401
0.0193385 0.019364599 0.0067449198
-0.00855482 0.0235452 0.0139474
-0.00900569 0.037073601 0.0125947
-0.0099016502 0.0400251 0.0118089
-0.0073166699 0.040699799 0.013222399
0.012940401 0.0412318 0.0102206
-0.0099601606 0.054827999 0.013004901
-0.0100815 0.057222001 0.0120743
-0.010129901 0.063020006 0.0126123
0.012646499 0.061874997 0.0093718097
0.010751799 0.063932493 0.0109251
-0.0034126402 0.082745798 0.011717
-0.0039602602 0.083691999 0.0099494001
0.00257354 0.0843537 0.0103613
0.0109812 0.086800903 0.0075165899
-0.0038557302 0.090867102 0.0104436
-0.0019334999 0.10115 0.0104194
0.0074248202 0.095335998 0.0090908092
0.0079115601 0.100721 0.0086390199
0.0022901199 0.10515599 0.0097719096
0.0057579195 0.104575 0.0092673302
0.0019422199 0.119063 0.010364199
0.0115307 -0.0962575 0.0123719
-0.028921198 -0.094597198 0.0239895
0.025601801 -0.084472604 0.012986
0.028390398 -0.063682497 0.0093523199
0.0289238 -0.0573107 0.0084737903
0.028870801 -0.045157202 0.0075321002
0.0293882 -0.042952798 0.0074245399
0.0270632 -0.034855999 0.0099299001
0.028188501 -0.0155191 0.00779426
0.028044799 -0.0098318299 0.0071334401
0.028388102 -0.0022482402 0.0067611299
-0.0147599 0.00547578 0.0141304
-0.0143764 0.00720947 0.0122474
-0.0092396401 0.0078479797 0.015860502
-0.0080495393 0.012302399 0.013748599
0.0200112 0.0120366 0.0087308902
-0.0081410203 0.015827399 0.012808099
0.0210211 0.0151113 0.0066202795
0.0187735 0.015695 0.0077442201
0.015962701 0.017112199 0.0101295
-0.00655255 0.037271596 0.0137031
0.0087838797 0.058854301 0.0116537
-0.013333601 0.069289297 0.0133149
-0.0106018 0.080316707 0.011539
-0.0057671699 0.081503794 0.012712101
0.0099441009 0.0814519 0.0091547398
-0.00156046 0.095110603 0.0106523
0.00091798103 0.0997805 0.0105704
0.0058595901 0.098423794 0.0096837301
0.0029296302 0.10433899 0.0100368
-0.00120033 0.10451899 0.0104381
-0.0037805201 0.142095 0.0094956104
0.0256922 -0.0977339 0.0102826
-0.028010201 -0.095246695 0.023216601
0.0292481 -0.077901803 0.0088390391
-0.0456696 -0.053638898 0.020327698
0.027681198 -0.0393642 0.0092131505
0.026409099 -0.0077659702 0.0085064899
0.025177801 -0.0058339303 0.0106178
-0.017447799 0.0038227998 0.0148093
-0.0079281302 0.0102316 0.0149115
0.018010799 0.012736199 0.0097880196
-0.0068212003 0.019179001 0.0136516
-0.0071630403 0.025624299 0.0154847
-0.0101886 0.027435699 0.0148391
-0.0108511 0.029896999 0.0143721
-0.0082348492 0.0340565 0.0138758
-0.0079998206 0.044587202 0.0139091
-0.010767701 0.048073001 0.0143565
-0.0129657 0.049784601 0.0133001
-0.0053087301 0.055173896 0.0147286
-0.0077132098 0.0608822 0.0131107
-0.012372699 0.072574899 0.014038401
-0.00131361 0.083530098 0.0107906
0.00127496 0.0836711 0.0107167
0.0062102601 0.083608598 0.0092526702
0.0032778003 0.086354598 0.011201999
0.00058398995 0.086915895 0.011411102
0.0060971901 0.086394601 0.0105161
0.0034467601 0.093781501 0.0105199
0.00319606 0.099890999 0.0103974
-0.0298477 0.141654 0.0168745
0.024656601 -0.098206706 0.010111799
0.025185302 -0.096573696 0.0111428
0.0270446 -0.094495602 0.0100654
0.030005801 -0.082562305 0.0081203496
0.028498899 -0.0485605 0.0084139993
0.027719602 -0.036151297 0.0092518097
-0.041397203 -0.026496101 0.022900699
0.026704397 -0.0182437 0.0091580097
-0.0096564097 0.050097298 0.0152206
-0.0073573901 0.0574224 0.013350999
-0.00568425 0.058374502 0.0137787
-0.0071413303 0.063277602 0.013923501
0.0089845601 0.061632097 0.0113826
-0.0105514 0.0687273 0.015067099
-0.0113253 0.076238796 0.0136832
-0.0071115298 0.078507498 0.0143718
0.0063966499 0.0810645 0.0117647
0.0039844899 0.083610296 0.010159099
0.00149804 0.121416 0.0092682801
-0.032401796 0.139731 0.0186464
0.019394999 -0.098205298 0.013719601
0.023367399 -0.097876199 0.0122548
0.0245669 -0.097414598 0.0115553
-0.0245151 -0.095321193 0.022272
0.027176101 -0.067167506 0.0113982
0.027009999 -0.030204099 0.00957001
0.026161101 -0.0148883 0.0100336
0.025492501 -0.0033243303 0.010144901
0.0229 0.00360361 0.0127951
-0.00478693 0.0087871309 0.017823098
-0.0038335598 0.018385701 0.0147057
0.012396799 0.016560201 0.0129173
-0.00303014 0.039101101 0.014497501
-0.0046578394 0.040864602 0.0142067
-0.0052478802 0.0440658 0.014706001
0.0067324601 0.053508699 0.013786601
-0.0043259603 0.0606048 0.014063699
0.0050419201 0.062712505 0.0132918
-0.0015923001 0.081530407 0.0134882
0.0036518699 0.081540897 0.0126851
-0.027714198 0.10287499 0.019479601
-0.028518599 0.103618 0.0197409
-0.0272124 0.10374 0.019588498
-0.024551902 0.11549701 0.015401
-0.0045595197 0.125871 0.0118921
0.023603501 -0.097347505 0.0128001
0.0240422 -0.095654599 0.0133386
0.025622699 -0.075869203 0.013434
0.027755897 -0.062279802 0.0106452
0.024693899 -0.060612999 0.013822401
0.023285102 -0.0592466 0.015484801
0.025908399 -0.044982702 0.0114057
0.0251048 -0.035966203 0.0115535
0.0261731 -0.037525799 0.0113874
0.0249079 -0.031321201 0.0122201
0.0247848 -0.025764298 0.0122978
0.019251 0.0091633592 0.011911199
-0.0041143699 0.0154101 0.0147999
0.0012823 0.0143815 0.016486401
0.0145233 0.014101299 0.012294099
0.010124801 0.0177179 0.0138292
-0.00337568 0.023069199 0.0157992
-0.0052758199 0.027774701 0.0168317
-0.0076504 0.029925799 0.015957799
-0.0035944399 0.0349955 0.015148501
0.0091114193 0.037164003 0.013107499
0.00056173804 0.041479502 0.0149112
0.0054953899 0.041168801 0.0141184
-0.0033491398 0.0454618 0.015568499
-0.0076077404 0.0487689 0.0159915
0.0091220504 0.050909303 0.0127613
0.00509704 0.057051398 0.0136382
-0.00150396 0.058380105 0.0144449
0.00080153998 0.0600053 0.0142957
-0.00015316499 0.063399598 0.014650601
0.00259088 0.0633699 0.014166599
-0.0046458002 0.063300803 0.0144923
0.0058297003 0.064806201 0.014169699
0.0066902898 0.0676957 0.0139576
0.0080410605 0.0716203 0.0127307
-0.028441798 0.101349 0.020326599
-0.027569901 0.10603 0.019233201
0.00026350599 0.12833901 0.00627174
0.0214702 -0.097666197 0.015194801
0.014705901 -0.097828403 0.0183778
-0.0073438501 -0.0947892 0.019587498
0.0270778 -0.046558499 0.0103974
-0.041097201 -0.0360828 0.024647899
0.026013901 -0.034034401 0.0115426
0.025043899 -0.028149799 0.012871499
-0.0373623 -0.0146717 0.021581698
0.025392 -0.012189999 0.0111237
0.023626599 -0.0076096402 0.012622001
0.020825598 0.00048201802 0.015491399
0.016484501 0.010864101 0.0126268
0.00069772603 0.017093999 0.015548999
-0.00029873801 0.0185111 0.0154267
0.0065690898 0.0178701 0.014911599
0.012566 0.022305701 0.0125351
0.0086252699 0.0222691 0.0147083
-0.00076729601 0.027560899 0.017270099
0.0081265997 0.029114101 0.0152566
0.0051374002 0.0370588 0.0145825
0.0086559001 0.042548999 0.0129942
0.0015039999 0.045623504 0.015662
0.0052744402 0.048624199 0.015179699
-0.0060324101 0.0517237 0.016164901
-0.00169922 0.055519797 0.0150668
0.0019261499 0.055878401 0.014740201
-0.0015073001 0.065569296 0.0161814
-0.0056344401 0.064993396 0.015479701
-0.0080491994 0.066037104 0.0154212
-0.0073314696 0.070199303 0.016439099
-0.0086165396 0.073817201 0.0157956
0.0047771703 0.074088998 0.014741801
0.00081682496 0.080663495 0.013817
-0.029021 0.099155404 0.02118
-0.027447199 0.10250499 0.0208514
-0.029129099 0.117957 0.020527901
-0.034090601 0.12882401 0.020889699
-0.034229901 0.14035401 0.021015
0.0025271298 -0.095412299 0.022721501
-0.025782799 -0.094564497 0.027282801
-0.029110599 -0.092730694 0.025826499
0.022511501 -0.081535891 0.016773399
0.025271202 -0.054827802 0.013217101
0.023797899 -0.044100799 0.014145499
0.024709802 -0.034047402 0.0126392
0.0203605 -0.00142912 0.016565999
-0.0030215599 0.0115097 0.016706901
0.0042576399 0.0176835 0.0152979
0.0051186499 0.0224654 0.0157611
-0.0033396198 0.0303952 0.016921399
-0.00086100103 0.033751801 0.0159504
0.00055288 0.037422001 0.0150271
-0.00063273695 0.0477314 0.0164499
-0.0046536699 0.049140699 0.016624901
0.00042813597 0.050441898 0.0166348
-0.00166851 0.052100498 0.016371202
0.0041021002 0.052875102 0.015174501
0.00346595 0.070046499 0.015739299
-0.0049493802 0.072918504 0.0167043
-0.00395576 0.076594904 0.015907299
0.00054183399 0.074768797 0.016116502
-0.030964101 0.0960752 0.022950001
-0.029700398 0.097749494 0.021946799
-0.029962098 0.098886803 0.0218256
-0.028189098 0.10149701 0.021836098
-0.028937098 0.104636 0.022476101
-0.0297263 0.108753 0.021489199
-0.0336884 0.14178799 0.021312201
-0.020864001 -0.095806099 0.026409999
-0.0090684406 -0.0947254 0.027280301
-0.0334091 -0.090407699 0.0230937
0.0241645 -0.064548597 0.014686801
0.024410699 -0.051455896 0.013777999
0.0248744 -0.049768001 0.0134532
-0.045574404 -0.044137001 0.0206856
0.025423801 -0.042626802 0.0124591
0.021413401 -0.039427601 0.016841499
0.023281099 -0.035699099 0.014305299
0.021934699 -0.024086202 0.015393099
0.020782899 -0.0197943 0.0166921
0.021701999 -0.0069494299 0.014870301
-0.019472498 0.00136501 0.019107401
-0.0085839005 0.0060528899 0.018397499
0.017883901 0.0060763406 0.0176135
0.011599 0.013391599 0.014895001
0.0038834601 0.027713399 0.0167973
0.00175124 0.023688601 0.016503401
0.0017555099 0.0297377 0.0170771
0.0059467005 0.032253303 0.015532499
0.0021920099 0.049420796 0.016299699
0.00071594201 0.070313908 0.016593799
-0.0034111 0.068945393 0.016885901
-0.0017079901 0.0730775 0.0167825
-0.0305699 0.095133901 0.023664501
-0.031387899 0.097500905 0.023323201
-0.029884702 0.096534207 0.022370599
-0.0316475 0.099076405 0.0238364
-0.030467901 0.105778 0.0222519
-0.0295993 0.111335 0.022124801
-0.0110223 0.126096 0.0191331
-0.034607999 0.140019 0.022968
0.020545401 -0.097837098 0.0155725
0.019563101 -0.097060606 0.0169669
-0.0217015 -0.094664402 0.0215718
-0.035320301 -0.074862294 0.026660001
0.0243474 -0.062597796 0.014727199
0.0227699 -0.037423901 0.015564999
0.022956399 -0.030270001 0.0145716
0.023319598 -0.022448201 0.013976699
0.0229515 -0.0142929 0.013955401
-0.0251274 -0.00292629 0.021702699
-0.0052787899 0.0070317402 0.0193798
0.00073471002 0.0115851 0.017810602
0.012713199 0.010635199 0.0163495
0.0064427098 0.015018301 0.0159212
-0.030898398 0.094224498 0.0239629
-0.031246901 0.094514199 0.023802798
-0.029723499 0.0965968 0.0235168
-0.0295991 0.101762 0.0235119
-0.031008601 0.102747 0.0234468
-0.029224301 0.103439 0.023883499
-0.029256601 0.104477 0.0233062
-0.030074101 0.10737099 0.023238501
-0.029320801 0.11536499 0.0219559
-0.029071201 0.120059 0.022046
-0.028848801 0.124401 0.0225517
-0.035069302 0.12905201 0.0239047
-0.0345897 0.13301101 0.022930499
0.0154376 -0.097890802 0.019827899
0.018408502 -0.097825505 0.017699301
0.019303601 -0.097606793 0.0172574
-0.0161453 -0.094955102 0.026712399
0.0228587 -0.066629 0.016496599
0.020384198 -0.057706498 0.018694501
0.0214533 -0.054120202 0.017178699
0.023149701 -0.052232701 0.0156701
0.0223404 -0.050658204 0.016144399
0.022061199 -0.035697103 0.0153688
0.0223439 -0.033433203 0.015666099
0.0031197299 0.0121775 0.017661
0.0061450601 0.0116637 0.017910901
-0.031925801 0.092558399 0.0246212
-0.0327667 0.094733402 0.025183201
-0.032251902 0.094256207 0.024388799
-0.032191299 0.0971177 0.024511298
-0.0309163 0.095239997 0.024996299
-0.029901098 0.0984293 0.023829501
-0.0303657 0.098023698 0.0248111
-0.0298141 0.10058 0.024434401
-0.028803801 0.105845 0.023301799
-0.028358102 0.10461299 0.024336901
0.018863501 -0.097225897 0.018337701
-0.025528301 -0.095058195 0.026550699
0.019598499 -0.085114196 0.019684499
0.020258302 -0.064181194 0.018908301
0.0212324 -0.062417399 0.0183658
0.018878201 -0.060369302 0.0205679
0.021386299 -0.056034304 0.0180788
0.0225532 -0.049093898 0.016309999
0.0186815 -0.046546601 0.0204437
0.021547999 -0.042011298 0.017089801
0.0212282 -0.035819899 0.0164339
0.0196815 -0.035997503 0.018183399
0.021990899 -0.0317114 0.016803801
0.020398501 -0.026966602 0.0171491
0.022727899 -0.0268718 0.0150269
0.021219401 -0.024513202 0.016665399
0.020328199 -0.0114661 0.0169237
-0.0083998498 0.0024553002 0.026490901
-0.0047430298 0.0048802202 0.0232291
0.0090440102 0.0118438 0.017022699
-0.032704897 0.091353402 0.025713
-0.032858603 0.092168897 0.025439199
-0.0332807 0.092511296 0.0259718
-0.028824801 0.10085601 0.025413599
-0.031291801 0.102235 0.0240195
-0.0285512 0.111106 0.024024
-0.035163499 0.141302 0.025586098
0.0165732 -0.097516097 0.0199323
0.011757901 -0.0970231 0.018805701
0.0099317795 -0.097496003 0.0234193
0.0025096801 -0.095911302 0.0259583
0.018118799 -0.096958399 0.018968999
-0.026904499 -0.091166198 0.0289676
0.0201873 -0.094493203 0.018342501
0.020243902 -0.0524441 0.0189301
0.020329501 -0.0325143 0.017856801
0.0217402 -0.022920299 0.016458999
0.017935101 -0.018687099 0.0198665
-0.0291293 -0.010092201 0.025988001
0.021017101 -0.0031913803 0.0155799
-0.0334704 0.091206707 0.0272782
-0.032189097 0.090883099 0.027157199
-0.032876201 0.093986295 0.026626199
-0.031261399 0.093338996 0.026678402
-0.032349098 0.096188501 0.025337899
-0.0318067 0.098688796 0.0251616
-0.026897699 0.11920099 0.024639498
-0.021805599 0.11361699 0.027164301
-0.0157417 0.12583099 0.024400201
-0.0119247 0.140756 0.019798402
-0.0031343601 -0.094775997 0.026104998
0.020739499 -0.050866701 0.018611301
0.018760402 -0.044110201 0.0198364
0.0200433 -0.037487902 0.0186901
0.020761101 -0.030559501 0.0174888
0.0183139 -0.0251409 0.0199489
-0.030446898 0.0954367 0.026494101
-0.029089501 0.097307295 0.026871001
-0.017434901 0.117676 0.0219767
-0.0377247 0.139955 0.027666101
-0.034867398 0.140937 0.024147499
-0.033080101 0.142391 0.023109101
0.019104401 -0.0560425 0.0201331
0.018668501 -0.020331901 0.0196501
-0.031905599 -0.0133379 0.0259091
0.0180398 -0.0119362 0.019088199
0.0147075 0.0045539397 0.0216871
0.0154908 0.0068840897 0.019350201
-1.7853101e-05 0.0082952399 0.0203187
0.013483601 0.0090766903 0.0175878
-0.032776501 0.090590894 0.027256001
-0.030258801 0.102841 0.025283599
-0.030492399 0.10661499 0.023591701
-0.037930198 0.137283 0.027666699
-0.038031798 0.13777001 0.028672999
-0.0379356 0.139134 0.0283824
-0.03734 0.14085899 0.0282492
0.019525299 -0.066137806 0.020029198
0.014525699 -0.064175203 0.0247452
0.017844699 -0.035463199 0.020536501
0.018633101 -0.0298311 0.020149
-0.025066603 -0.00666181 0.026461598
0.018038601 -0.00801735 0.019247299
0.0168403 -0.0033423901 0.020273501
0.0027298997 0.0084418897 0.0209022
-0.030248201 0.0900065 0.030129701
-0.028833902 0.093078099 0.029367398
-0.021997999 0.10147899 0.027487302
-0.038074698 0.13138001 0.028603699
-0.018569401 -0.096189395 0.031065902
-0.024390301 -0.092656404 0.0306221
0.014223901 -0.095374003 0.024068398
-0.023833001 -0.090402201 0.031943299
0.018358 -0.076084003 0.021360999
0.016201401 -0.062540099 0.0236519
0.015667399 -0.050407905 0.023715099
0.0184211 -0.048432298 0.0204447
0.0163927 -0.035870302 0.0215292
0.017622 -0.031789601 0.020649299
0.017960601 -0.0284556 0.020217899
0.0128603 -0.00034110001 0.023971001
0.0069021001 0.0075603798 0.0225427
0.0062903599 0.0090247802 0.020544201
0.00979074 0.0086899903 0.0201742
-0.031866603 0.089741401 0.028581399
-0.0309476 0.099348702 0.026241999
-0.025934601 0.111871 0.0263156
-0.023458298 0.11624199 0.0272887
-0.024778299 0.12184 0.026263397
-0.023170602 0.122445 0.0270603
-0.025354901 0.124345 0.026130101
-0.0360047 0.13953301 0.029665003
0.0060216798 -0.096487805 0.024950501
0.011731001 -0.097682402 0.0229029
-0.00198181 -0.095536202 0.029076701
-0.025027001 -0.070876502 0.037595998
0.0152731 -0.066504501 0.024343099
0.016284401 -0.0566491 0.023039499
0.014729599 -0.043662 0.0240357
0.016019899 -0.032056198 0.022419799
0.017343599 -0.0298985 0.021553401
0.017350201 -0.023424201 0.020858601
-0.025959998 -0.021165701 0.035992701
0.0149906 -0.0091770003 0.0226078
-0.0110858 3.9837698e-05 0.029323097
0.013412001 -0.00191842 0.024053801
0.012770601 0.0073292302 0.021008302
-0.023913 0.099773698 0.029760901
-0.021908199 0.12351899 0.0268347
-0.037403502 0.13237399 0.0293917
-0.036950503 0.14097199 0.029068898
-0.028349599 0.14192399 0.0313408
-0.020022601 0.14147399 0.028344501
0.0063688802 -0.097001597 0.027306501
-0.028339898 -0.085815802 0.029859697
0.014858499 -0.0609653 0.024448799
0.016577201 -0.053456802 0.022766199
0.015699701 -0.048583198 0.023222901
0.015885601 -0.046231799 0.023276698
0.015120899 -0.041976102 0.023954
0.0166297 -0.037581101 0.022305598
0.0145649 -0.035518002 0.023898702
0.0157314 -0.030008901 0.023306901
0.017740401 -0.029502999 0.021400299
0.015862901 -0.029333001 0.022795301
0.0150877 -0.0282549 0.023530502
0.016425699 -0.0287134 0.021523502
0.015912201 -0.024884 0.022387
0.0160267 -0.022165101 0.0231528
0.0163638 -0.021485901 0.021789599
0.011550901 -0.0169212 0.026283801
0.0011670199 0.0061004097 0.0238548
-0.0318221 0.090105005 0.030630898
-0.031207502 0.094207495 0.028710801
-0.0284964 0.090275303 0.031276099
-0.022386499 0.099909402 0.027557099
-0.0272176 0.10412 0.027552899
-0.0234228 0.097069502 0.029237101
-0.024584498 0.10629699 0.028575301
-0.0239249 0.11056199 0.027897399
-0.019460501 0.127092 0.028472001
-0.034830101 0.13735799 0.031350799
-0.0357062 0.14070401 0.030305099
0.0113899 -0.096635804 0.025736902
0.0050268797 -0.095988706 0.026596999
0.0021725399 -0.095167503 0.028349599
0.00357128 -0.095518306 0.027480301
-0.021879999 -0.093590401 0.0324191
-0.036323503 -0.063623406 0.028207401
0.013159899 -0.062870003 0.0264204
0.013967199 -0.038933299 0.024674
0.0144502 -0.031528797 0.023684099
0.016246 -0.029315099 0.0233174
0.013701801 -0.024496298 0.024073999
0.0148912 -0.022702299 0.024185302
0.014815199 -0.0210147 0.023351699
-0.029310599 0.089642696 0.0312666
-0.024929401 0.101613 0.029719001
-0.023203699 0.10647 0.0285831
-0.035935298 0.138345 0.0304134
-0.030181602 0.142397 0.0279123
0.00821866 -0.094887003 0.0297295
0.0127489 -0.082826801 0.026701901
0.0143416 -0.058902502 0.025384599
0.0130779 -0.054371603 0.0265019
0.0129933 -0.037703898 0.0259565
0.012752401 -0.035884298 0.025172099
0.0118536 -0.033608001 0.026580399
0.0156196 -0.029368002 0.0238495
0.013524701 -0.0230268 0.025065202
0.0096645895 -0.019441899 0.027794302
0.013277399 -0.012574799 0.024315901
0.0132661 -0.0039091799 0.023916598
0.0116776 0.0056171198 0.023727899
-0.030211499 0.089876905 0.031833597
-0.0301554 0.090585604 0.031894401
-0.029114401 0.095444396 0.029812101
-0.0246912 0.094491094 0.0309182
-0.024961399 0.098844998 0.030412901
-0.035103198 0.13262101 0.031141197
-0.033377603 0.14171501 0.027659699
-0.021834102 0.142327 0.029077601
0.0091322009 -0.096616998 0.0278976
-0.0081575606 -0.095539905 0.033988096
0.000728263 -0.095556296 0.028308999
-0.020409402 -0.092984997 0.033948101
-0.0104933 -0.094808094 0.0312711
0.000442891 -0.094870105 0.030004103
0.0120122 -0.093015201 0.026929399
0.010715 -0.039599098 0.027640801
0.0121505 -0.030852601 0.0263971
0.0113535 -0.028375899 0.026610699
0.012326499 -0.024776099 0.026059698
0.0029164902 0.0041791601 0.028968001
-0.0267566 0.090075105 0.032375101
-0.025899801 0.092104301 0.032339901
-0.025251303 0.095587298 0.031293601
-0.030631399 0.141615 0.0321646
-0.0243403 0.142517 0.030376602
0.0057888199 -0.096988603 0.029598201
-0.0044000903 -0.095508695 0.0319985
-0.00205671 -0.0948814 0.0316112
0.01114 -0.066996597 0.028195899
0.011602299 -0.061307002 0.027336901
0.012558199 -0.059316896 0.027226698
0.013262101 -0.0561244 0.025763597
0.0106881 -0.055926003 0.027975101
0.0099141905 -0.054672003 0.0291267
0.012295999 -0.051261198 0.026362101
0.013961201 -0.048957001 0.025574699
0.0129923 -0.028060302 0.025105
0.012371299 -0.022436 0.026630301
0.00852184 0.0029492499 0.027446801
0.0090512 0.00578795 0.025236402
-0.028413599 0.090098903 0.032983504
-0.028106501 0.089885004 0.032382801
-0.025982901 0.091083698 0.032476299
-0.027162001 0.0922805 0.032643903
-0.026241198 0.092815295 0.032342996
-0.026271001 0.096280403 0.031184901
-0.033979498 0.135214 0.032804403
-0.0224666 0.134234 0.031854801
-0.032881301 0.140862 0.032876901
0.0086479597 -0.097048499 0.027153
-0.019701902 -0.095582902 0.0321513
0.0029996701 -0.096125796 0.030228298
0.0044943499 -0.096712701 0.0287714
0.00287477 -0.095254898 0.0294341
0.000286314 -0.094765902 0.030853901
-0.018236998 -0.094765 0.034848101
0.0096569601 -0.080910698 0.029456401
0.0107111 -0.072219498 0.028585101
0.010397499 -0.060747199 0.028507799
0.010211001 -0.050026499 0.028906798
0.0128619 -0.047767501 0.026306298
0.010609701 -0.047929298 0.027907401
0.0096520996 -0.045489199 0.028975701
0.010251199 -0.042321499 0.028569901
0.010415399 -0.0363927 0.028115902
0.0102621 -0.030629599 0.0278758
0.0118498 -0.029701799 0.026883001
0.0108705 -0.0231463 0.027367499
0.011706199 -0.0211119 0.0264067
0.0089810202 -0.00324555 0.028162301
-0.027031699 0.090146795 0.033309501
-0.028001299 0.090953499 0.033089299
-0.024153 0.128565 0.032189
-0.0326543 0.13231501 0.033288397
-0.033988703 0.140048 0.0324082
-0.0242211 0.137422 0.032124098
-0.023059798 0.139423 0.031855501
-0.0246842 0.140754 0.032211497
-0.023334401 0.14173999 0.0314577
-0.0220263 0.14101501 0.0310765
0.0062289699 -0.096723996 0.030645901
0.0018117999 -0.095350996 0.030546103
0.0031445499 -0.096591204 0.031539101
0.0069953599 -0.0965643 0.030336002
0.0065836506 -0.096122198 0.030589398
-0.0122167 -0.096325599 0.034474202
-0.0015345101 -0.094736598 0.032102697
0.0048508001 -0.093861096 0.032903098
0.0095101204 -0.064207807 0.029271599
0.0098358495 -0.062621899 0.029596502
-0.028982699 -0.055133998 0.036489896
0.0088293003 -0.057935797 0.0296601
